0.800449 -0.450391 -4.139551
0.794686 -0.428324 -4.109747
0.793315 -0.400251 -4.102656
0.83684 -0.607826 -4.327751
0.808329 -0.562748 -4.180303
0.795737 -0.223261 -4.115183
0.809194 -0.206126 -4.184776
0.787331 -0.366713 -4.071712
0.782912 -0.346109 -4.048857
0.803839 -0.1762 -4.157083
0.792198 -0.15403 -4.09688
0.794477 -0.324704 -4.108669
0.778545 -0.292206 -4.026274
0.821387 -0.13052 -4.247835
0.819515 -0.109045 -4.238153
0.789267 -0.274985 -4.081726
0.781811 -0.246291 -4.043164
0.83292 -0.075852 -4.307478
0.799939 -0.534235 -4.204913
0.775829 -0.496918 -4.078178
0.780217 -0.474981 -4.101246
0.782111 -0.447047 -4.1112
0.810097 -0.621652 -4.258312
0.778896 -0.426467 -4.094301
0.777404 -0.39844 -4.086456
0.813412 -0.600173 -4.275733
0.791058 -0.559453 -4.15823
0.776545 -0.221329 -4.081942
0.790543 -0.204566 -4.155522
0.774922 -0.366654 -4.07341
0.763546 -0.342898 -4.013611
0.787954 -0.175455 -4.141914
0.778473 -0.15376 -4.092078
0.781974 -0.324659 -4.110482
0.768573 -0.293035 -4.040034
0.802543 -0.129546 -4.2186
0.797782 -0.107835 -4.193574
0.775185 -0.274359 -4.074793
0.772515 -0.24722 -4.060756
0.810608 -0.07499 -4.260994
0.781076 -0.530043 -4.174296
0.76135 -0.495502 -4.068871
0.770374 -0.476545 -4.1171
0.769885 -0.44715 -4.114487
0.786179 -0.613019 -4.201565
0.765736 -0.426017 -4.092312
0.759546 -0.39556 -4.059232
0.794846 -0.595925 -4.247884
0.768921 -0.55256 -4.109334
0.764371 -0.22137 -4.085014
0.774349 -0.203605 -4.138342
0.760985 -0.365862 -4.066922
0.754502 -0.344297 -4.032277
0.772772 -0.174847 -4.129912
0.762787 -0.15309 -4.076554
0.768868 -0.324362 -4.10905
0.75043 -0.290728 -4.010511
0.788351 -0.129306 -4.213171
0.779519 -0.107065 -4.165973
0.763469 -0.274566 -4.080196
0.751767 -0.244456 -4.017655
0.784582 -0.073752 -4.193027
0.800121 -0.052981 -4.276073
0.768825 -0.530278 -4.178485
0.747713 -0.494601 -4.063743
0.753241 -0.473582 -4.093785
0.751156 -0.443421 -4.082453
0.778811 -0.645377 -4.232758
0.769897 -0.61016 -4.184313
0.751532 -0.424966 -4.084498
0.746349 -0.395056 -4.056331
0.778182 -0.592991 -4.229339
0.759056 -0.554408 -4.125388
0.747369 -0.219993 -4.061872
0.763092 -0.203933 -4.147326
0.744692 -0.363895 -4.047326
0.740074 -0.343246 -4.022225
0.756025 -0.173861 -4.108915
0.748429 -0.152669 -4.067631
0.748526 -0.320954 -4.06816
0.737639 -0.290455 -4.008992
0.77049 -0.128447 -4.187535
0.76374 -0.106616 -4.15085
0.747575 -0.273256 -4.062992
0.743538 -0.245742 -4.04105
0.773227 -0.073876 -4.20241
0.777229 -0.052309 -4.224161
0.754094 -0.528788 -4.169035
0.732304 -0.492483 -4.048568
0.73555 -0.470168 -4.066515
0.738036 -0.442939 -4.080259
0.760857 -0.641009 -4.206424
0.750154 -0.604423 -4.147254
0.732295 -0.420991 -4.048518
0.730469 -0.393096 -4.038421
0.763287 -0.591337 -4.219857
0.740738 -0.550047 -4.095193
0.732901 -0.21933 -4.051868
0.748249 -0.203299 -4.136721
0.72698 -0.361162 -4.019135
0.724448 -0.3416 -4.005134
0.744536 -0.174073 -4.116191
0.729725 -0.151335 -4.034309
0.741756 -0.323353 -4.100821
0.717456 -0.287217 -3.966477
0.753083 -0.127638 -4.163446
0.75402 -0.107014 -4.168626
0.731421 -0.271807 -4.043684
0.726721 -0.244188 -4.0177
0.755134 -0.07335 -4.174784
0.760955 -0.052067 -4.206966
0.768216 -0.026096 -4.24711
0.738162 -0.526395 -4.152418
0.717829 -0.490936 -4.038039
0.722157 -0.469437 -4.062384
0.723927 -0.44184 -4.07234
0.742244 -0.635934 -4.175379
0.737515 -0.604319 -4.148778
0.725835 -0.424355 -4.083073
0.717695 -0.392773 -4.037283
0.750157 -0.591022 -4.219896
0.72682 -0.548867 -4.088615
0.717829 -0.218463 -4.038038
0.734014 -0.202814 -4.129086
0.715588 -0.361532 -4.025433
0.706994 -0.339024 -3.977089
0.727903 -0.173071 -4.09471
0.717786 -0.151384 -4.037796
0.724227 -0.321067 -4.074027
0.704311 -0.286737 -3.961991
0.739528 -0.127467 -4.160101
0.736687 -0.106327 -4.144123
0.717174 -0.271034 -4.034352
0.71269 -0.243535 -4.009127
0.73589 -0.072693 -4.139637
0.745961 -0.051907 -4.196288
0.750051 -0.025911 -4.219298
0.757194 -0.676614 -4.25948
0.71998 -0.522293 -4.122245
0.703697 -0.489579 -4.029017
0.704287 -0.465724 -4.032397
0.704903 -0.437656 -4.035922
0.728444 -0.634885 -4.170709
0.721256 -0.601198 -4.12955
0.709136 -0.421749 -4.060162
0.704342 -0.392119 -4.03271
0.731671 -0.586409 -4.189186
0.712859 -0.547617 -4.081475
0.704865 -0.218221 -4.035708
0.715878 -0.201218 -4.098763
0.703484 -0.361552 -4.027797
0.696393 -0.339706 -3.987198
0.715112 -0.172965 -4.094376
0.70403 -0.151046 -4.030925
0.707061 -0.318868 -4.048277
0.692512 -0.286801 -3.964978
0.724585 -0.127047 -4.148615
0.720669 -0.105811 -4.126192
0.702798 -0.270186 -4.023875
0.695731 -0.241844 -3.98341
0.723157 -0.072668 -4.140435
0.725889 -0.051382 -4.156077
0.731991 -0.025724 -4.191016
0.753435 -0.003203 -4.313796
0.736159 -0.669174 -4.214882
0.709279 -0.523573 -4.134506
0.688914 -0.487718 -4.0158
0.690646 -0.46473 -4.025892
0.695876 -0.439645 -4.056381
0.712883 -0.632242 -4.155516
0.701838 -0.595294 -4.091132
0.694339 -0.420206 -4.047422
0.693651 -0.392954 -4.043408
0.719885 -0.587103 -4.196332
0.700055 -0.547233 -4.080738
0.693885 -0.218597 -4.044773
0.702736 -0.200995 -4.096366
0.688124 -0.359874 -4.011191
0.682676 -0.338867 -3.979433
0.701403 -0.172631 -4.088598
0.692612 -0.151208 -4.037355
0.696624 -0.319682 -4.060739
0.678273 -0.28584 -3.953767
0.710562 -0.126778 -4.141986
0.707218 -0.105661 -4.122496
0.689212 -0.26962 -4.017534
0.686608 -0.242868 -4.002354
0.707495 -0.072344 -4.12411
0.710293 -0.051162 -4.14042
0.716003 -0.025604 -4.173702
0.731359 -0.003164 -4.263217
0.71248 -0.659031 -4.153164
0.696856 -0.52361 -4.136921
0.674956 -0.48639 -4.006914
0.676633 -0.46345 -4.016868
0.683503 -0.439558 -4.057653
0.694623 -0.627075 -4.123665
0.68826 -0.594227 -4.085893
0.679739 -0.418734 -4.035306
0.673931 -0.388617 -4.000831
0.703553 -0.584054 -4.17668
0.685367 -0.545341 -4.068721
0.678592 -0.217606 -4.028499
0.687246 -0.200084 -4.079873
0.672864 -0.358192 -3.994491
0.668654 -0.337848 -3.969502
0.689603 -0.172765 -4.093866
0.675711 -0.150159 -4.011396
0.681052 -0.318131 -4.043102
0.665327 -0.285404 -3.949749
0.697791 -0.126728 -4.142475
0.689633 -0.104878 -4.094046
0.675779 -0.269097 -4.011799
0.66991 -0.241203 -3.976955
0.694306 -0.072266 -4.121788
0.69595 -0.051026 -4.131544
0.700442 -0.025496 -4.158211
0.715441 -0.003151 -4.247256
0.698046 -0.657238 -4.143986
0.68048 -0.52063 -4.115444
0.661472 -0.485365 -4.000487
0.721047 0.025679 -4.360786
0.66589 -0.46441 -4.027207
0.66723 -0.436917 -4.035312
0.681188 -0.626161 -4.119729
0.676796 -0.594985 -4.093165
0.668136 -0.419092 -4.040788
0.663427 -0.389536 -4.012312
0.687544 -0.581173 -4.15817
0.673384 -0.545577 -4.072528
0.663358 -0.2166 -4.011892
0.679426 -0.201414 -4.109071
0.663989 -0.359914 -4.015712
0.654809 -0.336886 -3.96019
0.672619 -0.171583 -4.067902
0.662276 -0.149857 -4.005352
0.668171 -0.317805 -4.041001
0.651654 -0.284636 -3.941108
0.680262 -0.125797 -4.114125
0.677463 -0.104906 -4.0972
0.661349 -0.268153 -3.999742
0.657575 -0.241079 -3.976921
0.67853 -0.071912 -4.103651
0.683268 -0.05101 -4.132304
0.682665 -0.025302 -4.128662
0.699111 -0.003135 -4.228125
0.709155 -0.718084 -4.28887
0.683426 -0.655207 -4.133265
0.667011 -0.519808 -4.110977
0.650011 -0.485818 -4.006199
0.701556 0.025449 -4.323888
0.652873 -0.463792 -4.023843
0.651681 -0.434666 -4.016498
0.666356 -0.623909 -4.106942
0.663058 -0.59374 -4.086614
0.651987 -0.416562 -4.018379
0.646138 -0.386435 -3.982332
0.676708 -0.582643 -4.170743
0.658566 -0.543487 -4.05893
0.656654 -0.218395 -4.047143
0.663465 -0.200337 -4.089125
0.647053 -0.357251 -3.987973
0.640728 -0.335767 -3.948987
0.658442 -0.171087 -4.058163
0.651128 -0.150072 -4.013087
0.65483 -0.317248 -4.035904
0.639183 -0.284377 -3.939464
0.66866 -0.12595 -4.121139
0.667794 -0.10533 -4.115803
0.647335 -0.267348 -3.989707
0.643755 -0.240398 -3.967647
0.667452 -0.072052 -4.113694
0.668944 -0.050868 -4.12289
0.670189 -0.025301 -4.130566
0.68244 -0.003117 -4.206073
0.682133 -0.703557 -4.204179
0.667172 -0.65151 -4.11197
0.655416 -0.520448 -4.118037
0.6324 -0.48161 -3.973425
0.686405 0.025371 -4.312744
0.63832 -0.462045 -4.010623
0.642658 -0.436768 -4.037881
0.652828 -0.622823 -4.101778
0.64669 -0.590054 -4.063216
0.64041 -0.416917 -4.023757
0.635501 -0.387273 -3.992909
0.661921 -0.580708 -4.158909
0.642076 -0.539917 -4.034222
0.636965 -0.215861 -4.002109
0.648774 -0.199613 -4.076308
0.634501 -0.356957 -3.986625
0.628293 -0.335488 -3.947621
0.645733 -0.170964 -4.057202
0.636703 -0.149528 -4.000466
0.642804 -0.317322 -4.038798
0.624608 -0.283157 -3.924469
0.654346 -0.125589 -4.111319
0.655291 -0.105317 -4.117257
0.634235 -0.2669 -3.984957
0.634613 -0.241474 -3.987334
0.651711 -0.071686 -4.094762
0.654853 -0.05074 -4.114501
0.655769 -0.025226 -4.120255
0.668572 -0.003112 -4.200698
0.663724 -0.697539 -4.170238
0.651999 -0.648755 -4.09657
0.640525 -0.518451 -4.104184
0.622002 -0.482844 -3.985497
0.668947 0.025204 -4.286295
0.67782 0.050698 -4.343152
0.625416 -0.461451 -4.007374
0.631939 -0.437781 -4.049169
0.639011 -0.621419 -4.094481
0.633305 -0.589005 -4.057918
0.627933 -0.416692 -4.0235
0.621305 -0.385938 -3.98103
0.646223 -0.577889 -4.140692
0.631007 -0.540861 -4.043198
0.628067 -0.216958 -4.02436
0.634623 -0.199031 -4.066364
0.621388 -0.356334 -3.981561
0.616011 -0.335286 -3.94711
0.632667 -0.170741 -4.053831
0.623846 -0.149339 -3.997312
0.626717 -0.315357 -4.015707
0.611923 -0.282766 -3.920916
0.63838 -0.124891 -4.090436
0.638791 -0.104648 -4.093073
0.624371 -0.267826 -4.000675
0.620372 -0.240616 -3.975053
0.638292 -0.071567 -4.089875
0.640088 -0.050555 -4.10138
0.63806 -0.025019 -4.088388
0.654454 -0.003105 -4.193435
0.65044 -0.696785 -4.167712
0.640014 -0.649133 -4.100906
0.626927 -0.517446 -4.098138
0.607831 -0.481143 -3.973311
0.651085 0.025014 -4.256056
0.660858 0.050403 -4.319944
0.612608 -0.46091 -4.004543
0.614628 -0.434181 -4.017743
0.624912 -0.619687 -4.084969
0.622376 -0.59025 -4.068394
0.617226 -0.41766 -4.034728
0.61059 -0.386758 -3.99135
0.634203 -0.578319 -4.145701
0.615094 -0.537613 -4.02079
0.612309 -0.215683 -4.002583
0.620895 -0.198564 -4.058708
0.610339 -0.356897 -3.989706
0.604793 -0.335668 -3.953454
0.620955 -0.170883 -4.059106
0.607366 -0.14826 -3.970274
0.615766 -0.315954 -4.025184
0.602693 -0.283991 -3.93973
0.626673 -0.125018 -4.096482
0.624135 -0.104263 -4.079887
0.607892 -0.265897 -3.97371
0.604725 -0.23917 -3.953012
0.624205 -0.071367 -4.080349
0.623659 -0.050228 -4.076781
0.629395 -0.025166 -4.114275
0.638988 -0.003091 -4.176983
0.633822 -0.692366 -4.143213
0.623581 -0.644932 -4.076267
0.611452 -0.514825 -4.079246
0.595145 -0.480578 -3.970455
0.638851 0.025038 -4.262033
0.645092 0.050191 -4.303673
0.597446 -0.458544 -3.985804
0.601842 -0.4337 -4.01513
0.611734 -0.618821 -4.081127
0.604967 -0.58528 -4.035981
0.601066 -0.414906 -4.009954
0.596149 -0.385206 -3.977153
0.619498 -0.576273 -4.132921
0.603547 -0.538131 -4.026506
0.601229 -0.21604 -4.011045
0.606986 -0.19802 -4.049452
0.596572 -0.355864 -3.979973
0.589608 -0.333822 -3.933514
0.60807 -0.170703 -4.056684
0.59814 -0.148945 -3.990437
0.602359 -0.315292 -4.018579
0.588964 -0.283103 -3.929214
0.61307 -0.124764 -4.090039
0.611213 -0.104158 -4.077649
0.595692 -0.265801 -3.9741
0.591105 -0.238486 -3.943501
0.609113 -0.071042 -4.06364
0.612269 -0.050302 -4.084694
0.613954 -0.025042 -4.095934
0.625782 -0.003088 -4.174845
0.62471 -0.696139 -4.167695
0.614473 -0.648296 -4.099396
0.60085 -0.516289 -4.092674
0.580827 -0.47865 -3.956291
0.626952 0.025076 -4.270465
0.628071 0.04987 -4.278091
0.585303 -0.458451 -3.98678
0.590761 -0.434459 -4.023952
0.599296 -0.61869 -4.082089
0.594654 -0.587119 -4.050471
0.587115 -0.4136 -3.999118
0.581302 -0.383327 -3.959521
0.606985 -0.57623 -4.134463
0.590114 -0.536961 -4.019546
0.590685 -0.216611 -4.023438
0.59612 -0.19847 -4.060459
0.583034 -0.354931 -3.971325
0.579794 -0.335008 -3.949254
0.592612 -0.16978 -4.03656
0.586307 -0.148997 -3.993619
0.593633 -0.317107 -4.043519
0.577116 -0.283106 -3.931012
0.60415 -0.125474 -4.115152
0.597219 -0.103863 -4.067939
0.58615 -0.266915 -3.992543
0.580544 -0.239036 -3.95436
0.59738 -0.071104 -4.069037
0.601101 -0.050399 -4.094387
0.600123 -0.024981 -4.08772
0.612639 -0.003085 -4.172977
0.626357 -0.747569 -4.266418
0.608263 -0.691733 -4.143168
0.598916 -0.644861 -4.079504
0.587469 -0.515381 -4.087271
0.569566 -0.479216 -3.96271
0.612358 0.025006 -4.260432
0.617646 0.050071 -4.297223
0.575985 -0.460617 -4.00737
0.577136 -0.433343 -4.015379
0.583251 -0.614758 -4.05792
0.580758 -0.585428 -4.040577
0.575439 -0.413879 -4.003569
0.57466 -0.386897 -3.998148
0.595477 -0.577165 -4.142985
0.579172 -0.53806 -4.029541
0.574646 -0.21515 -3.998056
0.582375 -0.197961 -4.051828
0.568424 -0.353297 -3.954768
0.566281 -0.334064 -3.939852
0.581732 -0.17016 -4.047352
0.573661 -0.148841 -3.991201
0.575844 -0.314057 -4.00639
0.561616 -0.281282 -3.907399
0.586001 -0.124258 -4.077055
0.583396 -0.103588 -4.058934
0.571905 -0.265892 -3.978983
0.563266 -0.236787 -3.918877
0.584628 -0.071047 -4.067506
0.588256 -0.050357 -4.092745
0.587615 -0.024973 -4.088282
0.598421 -0.003077 -4.163469
0.610628 -0.744085 -4.248394
0.593797 -0.689448 -4.131294
0.584639 -0.642695 -4.067583
0.577271 -0.517291 -4.104178
0.557908 -0.47947 -3.966513
0.596662 0.024888 -4.242041
0.601608 0.049816 -4.277206
0.561734 -0.45885 -3.993714
0.566001 -0.434093 -4.024053
0.57352 -0.617461 -4.07751
0.567718 -0.584552 -4.036262
0.564411 -0.41465 -4.012751
0.560776 -0.385644 -3.986908
0.578839 -0.573066 -4.115324
0.566285 -0.537367 -4.026074
0.559782 -0.214078 -3.979841
0.570309 -0.198016 -4.054683
0.557802 -0.354127 -3.96576
0.555212 -0.334557 -3.94735
0.570434 -0.170432 -4.055567
0.560204 -0.148466 -3.982841
0.565905 -0.315253 -4.02337
0.552371 -0.282583 -3.927146
0.574629 -0.124459 -4.085396
0.571207 -0.103598 -4.061066
0.559325 -0.265619 -3.976593
0.552939 -0.237429 -3.931185
0.605294 0.07766 -4.303415
0.569269 -0.070663 -4.047288
0.572743 -0.05008 -4.071986
0.572387 -0.024847 -4.069453
0.584493 -0.00307 -4.155528
0.594164 -0.739545 -4.224285
0.579563 -0.687348 -4.120472
0.571201 -0.641383 -4.061022
0.563054 -0.515609 -4.092544
0.546209 -0.479704 -3.970111
0.581187 0.024774 -4.224349
0.587317 0.049699 -4.268903
0.551518 -0.460379 -4.008701
0.55039 -0.431371 -4.0005
0.558883 -0.614889 -4.062234
0.554493 -0.583447 -4.030322
0.552469 -0.414771 -4.015607
0.545988 -0.383703 -3.968504
0.566623 -0.573266 -4.118491
0.5552 -0.538394 -4.035462
0.548836 -0.214492 -3.989203
0.560028 -0.198708 -4.070557
0.547291 -0.355069 -3.977976
0.538966 -0.331885 -3.917467
0.555926 -0.169738 -4.04074
0.546847 -0.148102 -3.974749
0.553371 -0.315027 -4.022169
0.53801 -0.281268 -3.910516
0.562657 -0.124536 -4.089664
0.554567 -0.102784 -4.030862
0.550487 -0.267151 -4.001206
0.543706 -0.238581 -3.951914
0.588429 0.077151 -4.276983
0.561043 -0.071168 -4.077932
0.563676 -0.050367 -4.09707
0.561797 -0.024922 -4.08341
0.571698 -0.003068 -4.155378
0.579609 -0.737239 -4.21288
0.565653 -0.685553 -4.111438
0.556515 -0.638588 -4.045019
0.547486 -0.512592 -4.070269
0.532718 -0.478343 -3.960474
0.567827 0.024747 -4.221496
0.575144 0.04976 -4.275894
0.537429 -0.458675 -3.9955
0.539487 -0.432305 -4.010802
0.544539 -0.612538 -4.048363
0.542453 -0.583574 -4.032852
0.536549 -0.41185 -3.988956
0.535897 -0.385053 -3.98411
0.551997 -0.570988 -4.103806
0.54125 -0.536633 -4.023912
0.537904 -0.214932 -3.999031
0.545318 -0.197826 -4.054152
0.532996 -0.353547 -3.962548
0.530062 -0.333718 -3.940729
0.542568 -0.169373 -4.033706
0.534743 -0.148071 -3.975534
0.538942 -0.31369 -4.006751
0.525847 -0.281072 -3.909395
0.550888 -0.124665 -4.095564
0.545948 -0.103455 -4.058833
0.535446 -0.265677 -3.980762
0.532649 -0.238969 -3.959962
0.570217 0.076439 -4.239266
0.544695 -0.070643 -4.049519
0.547157 -0.049987 -4.067822
0.549203 -0.02491 -4.083036
0.55782 -0.003061 -4.1471
0.567756 -0.738352 -4.22097
0.554378 -0.68695 -4.121506
0.547438 -0.642255 -4.069914
0.537583 -0.514867 -4.089972
0.520184 -0.477805 -3.957603
0.556318 0.024801 -4.232515
0.558437 0.049423 -4.248634
0.522278 -0.45597 -3.973534
0.527872 -0.432701 -4.016091
0.532784 -0.613064 -4.053461
0.529451 -0.582654 -4.02811
0.527729 -0.414373 -4.015003
0.524192 -0.385284 -3.988096
0.540224 -0.57163 -4.110072
0.526864 -0.534352 -4.00842
0.524599 -0.214424 -3.991192
0.530216 -0.19676 -4.033928
0.52457 -0.35594 -3.990969
0.517355 -0.333191 -3.936082
0.53201 -0.169887 -4.047577
0.523172 -0.14819 -3.980332
0.526468 -0.31346 -4.005414
0.515153 -0.281673 -3.919325
0.537495 -0.124425 -4.089307
0.532874 -0.103294 -4.054148
0.522098 -0.264997 -3.972167
0.519639 -0.23848 -3.953456
0.557176 0.076404 -4.239041
0.534038 -0.07085 -4.063008
0.536972 -0.050182 -4.085324
0.536183 -0.024877 -4.079324
0.54693 -0.00307 -4.161091
0.553963 -0.736942 -4.214599
0.540181 -0.684714 -4.109741
0.532638 -0.639227 -4.052352
0.52562 -0.515233 -4.094486
0.509175 -0.478678 -3.966389
0.540595 0.024667 -4.211144
0.544014 0.049277 -4.237779
0.510803 -0.456426 -3.979068
0.51422 -0.431411 -4.005685
0.520502 -0.612999 -4.054618
0.518029 -0.583473 -4.035354
0.515159 -0.414004 -4.013003
0.509263 -0.383103 -3.967069
0.527981 -0.571797 -4.11288
0.514694 -0.534271 -4.00938
0.511512 -0.213986 -3.984591
0.519338 -0.19725 -4.045551
0.50997 -0.354161 -3.972582
0.504463 -0.332519 -3.929682
0.51829 -0.169393 -4.03739
0.510365 -0.147958 -3.975653
0.5189 -0.31621 -4.04214
0.502529 -0.281224 -3.914617
0.523803 -0.124103 -4.080339
0.521651 -0.103494 -4.063568
0.50854 -0.264177 -3.961439
0.505392 -0.23739 -3.936918
0.543381 0.076263 -4.232842
0.520214 -0.070637 -4.052378
0.52621 -0.050332 -4.09909
0.524934 -0.024927 -4.089144
0.531999 -0.003056 -4.144183
0.537322 -0.731593 -4.185647
0.525251 -0.681428 -4.091618
0.518566 -0.636956 -4.039539
0.511124 -0.513081 -4.078939
0.497712 -0.479161 -3.97191
0.529161 0.024726 -4.222883
0.533631 0.0495 -4.258554
0.498028 -0.45572 -3.974427
0.501771 -0.431097 -4.004298
0.507532 -0.612108 -4.050277
0.504674 -0.58211 -4.027466
0.50024 -0.411688 -3.99208
0.498129 -0.383745 -3.97524
0.513978 -0.570027 -4.101719
0.501237 -0.532823 -4.000042
0.499737 -0.214091 -3.988068
0.505847 -0.196749 -4.036826
0.498751 -0.354704 -3.980198
0.49233 -0.332331 -3.92896
0.50556 -0.169209 -4.034537
0.498693 -0.148053 -3.979741
0.503221 -0.314035 -4.015873
0.491698 -0.281785 -3.923917
0.513336 -0.12455 -4.096591
0.509231 -0.103461 -4.063831
0.499061 -0.265492 -3.982672
0.493315 -0.237293 -3.936818
0.528687 0.075986 -4.219096
0.506346 -0.070409 -4.040812
0.508612 -0.049819 -4.058895
0.509818 -0.024792 -4.068515
0.520472 -0.003062 -4.153544
0.524664 -0.731549 -4.186995
0.514882 -0.68405 -4.108934
0.508177 -0.639216 -4.055423
0.497016 -0.511226 -4.06571
0.482919 -0.476388 -3.950397
0.516488 0.024729 -4.224995
0.520716 0.049493 -4.259578
0.487294 -0.456897 -3.986179
0.489969 -0.431341 -4.008062
0.49393 -0.610398 -4.040466
0.491598 -0.581015 -4.021389
0.488718 -0.412127 -3.997828
0.485027 -0.382868 -3.967635
0.499541 -0.567681 -4.086362
0.489633 -0.533326 -4.005313
0.487291 -0.213908 -3.986159
0.494543 -0.197097 -4.045484
0.485447 -0.353759 -3.971076
0.479146 -0.331409 -3.919528
0.49435 -0.169538 -4.043903
0.486802 -0.148088 -3.982154
0.49007 -0.313372 -4.008891
0.477868 -0.280614 -3.909075
0.498209 -0.123861 -4.075466
0.496765 -0.103418 -4.063656
0.484652 -0.264186 -3.964569
0.482797 -0.237962 -3.949396
0.516112 0.076009 -4.221923
0.494038 -0.070392 -4.041345
0.497777 -0.04996 -4.071935
0.498123 -0.024821 -4.074761
0.50655 -0.003054 -4.143696
0.51273 -0.732544 -4.194257
0.501786 -0.683094 -4.104725
0.496307 -0.639685 -4.059911
0.48717 -0.513776 -4.087478
0.474055 -0.479475 -3.977444
0.501917 0.024639 -4.211209
0.50778 0.049485 -4.260401
0.47714 -0.458695 -4.003329
0.475537 -0.429228 -3.989877
0.483288 -0.612357 -4.054912
0.479184 -0.580671 -4.020473
0.474045 -0.409868 -3.977359
0.472267 -0.382227 -3.962439
0.490769 -0.571823 -4.117677
0.476534 -0.532191 -3.998246
0.473433 -0.213083 -3.972221
0.480374 -0.196294 -4.030458
0.472201 -0.352812 -3.961889
0.46734 -0.331422 -3.921101
0.48205 -0.169502 -4.04452
0.471146 -0.146951 -3.953035
0.477755 -0.313227 -4.008485
0.465389 -0.2802 -3.904732
0.48695 -0.124125 -4.085632
0.483889 -0.103286 -4.05995
0.473053 -0.264388 -3.969038
0.468677 -0.236847 -3.932318
0.502683 0.075904 -4.217638
0.481962 -0.070409 -4.043785
0.484763 -0.049885 -4.067289
0.484305 -0.024743 -4.063447
0.495093 -0.00306 -4.153955
0.501896 -0.735207 -4.211039
0.490146 -0.68413 -4.112446
0.480887 -0.635491 -4.034766
0.473493 -0.512318 -4.077328
0.45962 -0.476945 -3.957865
0.489697 0.024664 -4.21686
0.492621 0.049254 -4.242035
0.461744 -0.455419 -3.976149
0.463884 -0.429581 -3.994578
0.470417 -0.611525 -4.050839
0.466449 -0.579915 -4.016664
0.465387 -0.412829 -4.007523
0.46307 -0.384515 -3.987569
0.477665 -0.571006 -4.113252
0.464773 -0.532533 -4.002234
0.463449 -0.214006 -3.990836
0.468278 -0.19632 -4.032422
0.460187 -0.352763 -3.962742
0.45746 -0.332839 -3.939265
0.466546 -0.16831 -4.0175
0.460373 -0.14732 -3.964346
0.465538 -0.313142 -4.008821
0.454434 -0.280709 -3.913205
0.473967 -0.123953 -4.081404
0.472249 -0.103419 -4.066611
0.459437 -0.263445 -3.956284
0.457927 -0.237423 -3.943285
0.489729 0.075868 -4.217139
0.469435 -0.070359 -4.042385
0.473387 -0.049979 -4.07641
0.472792 -0.024782 -4.071285
0.482168 -0.003058 -4.152027
0.48629 -0.730841 -4.187519
0.477309 -0.683511 -4.110185
0.470789 -0.6383 -4.054039
0.461966 -0.513176 -4.085566
0.44821 -0.477509 -3.963909
0.476587 0.024643 -4.214871
0.479257 0.049196 -4.238483
0.451744 -0.457439 -3.995166
0.45428 -0.431906 -4.01759
0.458945 -0.612522 -4.058849
0.457486 -0.58394 -4.045942
0.454212 -0.413661 -4.016987
0.450921 -0.384412 -3.987884
0.463574 -0.568939 -4.099782
0.454497 -0.534647 -4.019511
0.45302 -0.214769 -4.006452
0.458433 -0.197317 -4.054317
0.448647 -0.353089 -3.967772
0.444757 -0.332226 -3.933367
0.456006 -0.168895 -4.032855
0.447656 -0.14707 -3.959007
0.453772 -0.313367 -4.013097
0.442266 -0.280478 -3.911337
0.460095 -0.123534 -4.069016
0.459684 -0.103352 -4.065383
0.44734 -0.263349 -3.956212
0.445847 -0.237324 -3.943006
0.476247 0.075747 -4.211863
0.45748 -0.070396 -4.045895
0.460474 -0.049913 -4.072373
0.459842 -0.024746 -4.066779
0.468095 -0.003048 -4.139765
0.472309 -0.72876 -4.177034
0.462531 -0.680013 -4.090561
0.457108 -0.63628 -4.042601
0.448164 -0.511488 -4.073504
0.435287 -0.476451 -3.956462
0.463825 0.024641 -4.215852
0.466722 0.049222 -4.242183
0.440449 -0.458226 -4.003384
0.439632 -0.429436 -3.995955
0.445053 -0.610262 -4.045231
0.442545 -0.580351 -4.022431
0.440814 -0.412463 -4.006698
0.437256 -0.38298 -3.974364
0.45188 -0.569788 -4.107284
0.442436 -0.534724 -4.021444
0.44094 -0.214771 -4.007844
0.445378 -0.196953 -4.048182
0.436173 -0.352681 -3.964518
0.433395 -0.332612 -3.939268
0.446201 -0.169793 -4.055663
0.436865 -0.147459 -3.970808
0.442581 -0.314016 -4.022761
0.428678 -0.279312 -3.89639
0.449771 -0.124072 -4.088117
0.445395 -0.102884 -4.048335
0.435505 -0.263409 -3.958444
0.432996 -0.236801 -3.935637
0.461086 0.075346 -4.190961
0.44644 -0.07058 -4.057834
0.449289 -0.050035 -4.083736
0.448325 -0.024787 -4.074973
0.455254 -0.003045 -4.137949
0.460482 -0.729985 -4.185469
0.450277 -0.680142 -4.092712
0.447334 -0.63974 -4.065958
0.436638 -0.512383 -4.081964
0.424044 -0.47723 -3.964227
0.451838 0.024681 -4.224055
0.454277 0.04926 -4.246859
0.428056 -0.457887 -4.001733
0.427788 -0.429647 -3.999226
0.434527 -0.612624 -4.062222
0.432309 -0.582911 -4.041493
0.429568 -0.413272 -4.015869
0.426655 -0.384229 -3.988628
0.440068 -0.570536 -4.114022
0.428511 -0.532494 -4.005988
0.427079 -0.213884 -3.992599
0.434168 -0.197408 -4.058866
0.425342 -0.353618 -3.97636
0.420739 -0.332002 -3.933329
0.430946 -0.168611 -4.028749
0.424509 -0.147328 -3.968572
0.428918 -0.312901 -4.009787
0.417912 -0.279974 -3.906901
0.438696 -0.124428 -4.101203
0.435443 -0.10342 -4.070786
0.425157 -0.264399 -3.974627
0.422968 -0.237838 -3.954166
0.448972 0.075434 -4.197266
0.432922 -0.070372 -4.047225
0.436276 -0.049956 -4.078579
0.436788 -0.02483 -4.083366
0.444245 -0.003055 -4.153078
0.449691 -0.732976 -4.203991
0.44003 -0.6834 -4.113668
0.433638 -0.637637 -4.053915
0.424968 -0.513158 -4.08944
0.41188 -0.476991 -3.963497
0.438334 0.024638 -4.218061
0.442139 0.049335 -4.254674
0.414661 -0.456428 -3.990251
0.416756 -0.430711 -4.010411
0.422399 -0.612806 -4.064716
0.419548 -0.582118 -4.037278
0.414818 -0.41066 -3.991762
0.414177 -0.383815 -3.985599
0.42823 -0.571298 -4.120828
0.416851 -0.533034 -4.011325
0.41684 -0.214814 -4.011227
0.421884 -0.197388 -4.05976
0.411453 -0.351997 -3.959383
0.408872 -0.331999 -3.934543
0.418935 -0.168668 -4.031381
0.41166 -0.147014 -3.961377
0.418679 -0.314294 -4.028924
0.407993 -0.281259 -3.926089
0.424143 -0.123791 -4.081495
0.421461 -0.103004 -4.055689
0.41446 -0.265226 -3.98832
0.411401 -0.238046 -3.958887
0.437919 0.075712 -4.214067
0.422736 -0.07071 -4.067962
0.42505 -0.050082 -4.09023
0.424442 -0.024828 -4.084377
0.432153 -0.003058 -4.158576
0.437874 -0.734424 -4.213637
0.427018 -0.682435 -4.109161
0.419328 -0.634486 -4.035162
0.412171 -0.512585 -4.086132
0.400696 -0.477911 -3.97237
0.426543 0.024692 -4.228607
0.429279 0.049332 -4.255728
0.402581 -0.456379 -3.991054
0.402691 -0.428617 -3.992144
0.409501 -0.611854 -4.059654
0.406989 -0.581574 -4.034753
0.402821 -0.410706 -3.993438
0.402751 -0.384384 -3.992736
0.415046 -0.570263 -4.114633
0.405082 -0.533471 -4.015851
0.403232 -0.214013 -3.997514
0.409593 -0.197367 -4.060567
0.399729 -0.35219 -3.962785
0.397315 -0.33226 -3.938852
0.407362 -0.168911 -4.03845
0.401969 -0.147845 -3.984992
0.405819 -0.313747 -4.023152
0.396737 -0.281676 -3.93312
0.411532 -0.123701 -4.079796
0.408274 -0.102764 -4.047491
0.399643 -0.263389 -3.961925
0.399602 -0.238131 -3.961523
0.424243 0.07554 -4.205804
0.408027 -0.07029 -4.04505
0.410497 -0.049814 -4.069533
0.411122 -0.024768 -4.075725
0.419097 -0.003055 -4.154793
0.424223 -0.732798 -4.205602
0.4136 -0.680752 -4.100296
0.409081 -0.637486 -4.055496
0.398755 -0.511186 -4.076201
0.387947 -0.476967 -3.965718
0.413291 0.024662 -4.224795
0.415941 0.049273 -4.25189
0.390209 -0.45599 -3.98884
0.393203 -0.43142 -4.019455
0.398703 -0.614084 -4.075671
0.395959 -0.583254 -4.047622
0.392464 -0.41248 -4.011893
0.391865 -0.385523 -4.00577
0.402045 -0.569428 -4.109835
0.392675 -0.533073 -4.014057
0.392366 -0.214665 -4.010891
0.396358 -0.196877 -4.051699
0.388394 -0.352752 -3.970292
0.385272 -0.332121 -3.938381
0.394209 -0.168496 -4.02973
0.389376 -0.147628 -3.980331
0.393754 -0.313804 -4.025088
0.382421 -0.279881 -3.909229
0.400935 -0.124231 -4.09849
0.397514 -0.10314 -4.063514
0.390123 -0.265041 -3.987971
0.3854 -0.236748 -3.939688
0.414375 0.076058 -4.235883
0.397379 -0.070566 -4.062138
0.39925 -0.049942 -4.081263
0.399354 -0.024801 -4.082325
0.406406 -0.003054 -4.154413
0.411347 -0.73246 -4.204927
0.402357 -0.682661 -4.113028
0.398517 -0.640167 -4.073774
0.387594 -0.512687 -4.089355
0.376806 -0.478009 -3.97553
0.400969 0.024688 -4.230467
0.402289 0.049172 -4.244394
0.379266 -0.457302 -4.001486
0.38128 -0.431647 -4.022733
0.385299 -0.612319 -4.065138
0.383307 -0.58258 -4.044118
0.379189 -0.411208 -4.000677
0.378908 -0.384636 -3.997711
0.389531 -0.569256 -4.109785
0.382306 -0.535508 -4.033561
0.380338 -0.214704 -4.012792
0.386437 -0.198055 -4.077139
0.375776 -0.352149 -3.964659
0.373879 -0.332552 -3.944646
0.383509 -0.169138 -4.04625
0.377787 -0.14779 -3.985882
0.38124 -0.313497 -4.022315
0.372346 -0.281177 -3.928475
0.388362 -0.124163 -4.097456
0.3847 -0.102991 -4.058817
0.377918 -0.264917 -3.987263
0.374763 -0.237537 -3.953971
0.40238 0.076206 -4.245354
0.386383 -0.070796 -4.07657
0.387929 -0.05007 -4.092883
0.386414 -0.024761 -4.076906
0.394834 -0.003061 -4.165732
0.400194 -0.735272 -4.222291
0.392938 -0.687889 -4.14573
0.385604 -0.639129 -4.06835
0.375014 -0.512352 -4.087832
0.364289 -0.477321 -3.970927
0.389152 0.024748 -4.241943
0.39195 0.049483 -4.272439
0.366827 -0.456843 -3.998593
0.368798 -0.43124 -4.02007
0.374741 -0.615115 -4.084854
0.370991 -0.582396 -4.04398
0.369205 -0.413541 -4.02451
0.366185 -0.383939 -3.991593
0.37824 -0.570925 -4.122996
0.369842 -0.535077 -4.03145
0.365598 -0.213168 -3.985195
0.372284 -0.197074 -4.05807
0.364361 -0.352676 -3.971707
0.362093 -0.332656 -3.946987
0.371185 -0.169084 -4.046098
0.365256 -0.147585 -3.981463
0.368632 -0.313094 -4.018268
0.35939 -0.280315 -3.917525
0.37514 -0.123878 -4.089201
0.374785 -0.103634 -4.085332
0.366656 -0.265471 -3.996727
0.36482 -0.238836 -3.976716
0.390845 0.076454 -4.260403
0.37358 -0.070701 -4.072199
0.375262 -0.050027 -4.090535
0.375459 -0.02485 -4.092678
0.382145 -0.00306 -4.165564
0.387796 -0.735914 -4.227167
0.380829 -0.688606 -4.15122
0.372199 -0.637189 -4.057143
0.365034 -0.515672 -4.115447
0.352922 -0.478148 -3.978893
0.376808 0.024778 -4.248185
0.379053 0.049482 -4.273502
0.357242 -0.460032 -4.027596
0.35626 -0.430742 -4.016525
0.360609 -0.612043 -4.065557
0.360226 -0.584723 -4.061238
0.358141 -0.414787 -4.037732
0.353123 -0.382831 -3.981157
0.366127 -0.571431 -4.127773
0.357382 -0.534629 -4.029172
0.354803 -0.213907 -4.000094
0.36203 -0.198161 -4.081578
0.352523 -0.352818 -3.974391
0.3498 -0.332288 -3.943697
0.360202 -0.169659 -4.060963
0.353209 -0.14757 -3.982127
0.358174 -0.314554 -4.038105
0.348532 -0.281088 -3.929398
0.36348 -0.124109 -4.09792
0.362081 -0.103526 -4.082152
0.355762 -0.266341 -4.010911
0.351291 -0.237798 -3.960501
0.378488 0.076554 -4.267122
0.3611 -0.070662 -4.071091
0.362482 -0.049966 -4.08667
0.364063 -0.024915 -4.104496
0.369938 -0.003063 -4.170737
0.374498 -0.734839 -4.222141
0.367155 -0.686451 -4.139353
0.361775 -0.640401 -4.078705
0.352276 -0.515168 -4.112507
0.34107 -0.478359 -3.981688
0.363896 0.024771 -4.248158
0.367604 0.049676 -4.291453
0.345565 -0.460661 -4.034168
0.343875 -0.430405 -4.014436
0.350765 -0.616295 -4.094875
0.34847 -0.585553 -4.068075
0.343841 -0.412244 -4.014038
0.343443 -0.385444 -4.009389
0.354603 -0.572928 -4.139676
0.346512 -0.536617 -4.045221
0.34439 -0.214939 -4.02045
0.348089 -0.197238 -4.063635
0.341085 -0.353389 -3.981866
0.338202 -0.332581 -3.94821
0.347305 -0.169343 -4.054474
0.341101 -0.147528 -3.98205
0.346849 -0.315332 -4.049159
0.336782 -0.281174 -3.931634
0.352223 -0.124499 -4.11189
0.35169 -0.104095 -4.105664
0.341811 -0.264905 -3.990338
0.339986 -0.238247 -3.96903
0.365669 0.076565 -4.268864
0.348996 -0.070698 -4.074223
0.350795 -0.050057 -4.095217
0.350544 -0.024834 -4.092287
0.358086 -0.003069 -4.18034
0.363994 -0.739371 -4.249302
0.355351 -0.687772 -4.14841
0.349241 -0.639978 -4.077082
0.339531 -0.514652 -4.109427
0.329639 -0.479199 -3.989697
0.352724 0.024887 -4.269097
0.352843 0.049422 -4.270541
0.331648 -0.458243 -4.014011
0.332943 -0.431931 -4.02969
0.3371 -0.613901 -4.080004
0.335026 -0.583509 -4.0549
0.332973 -0.413784 -4.030048
0.331101 -0.385154 -4.007389
0.342261 -0.573169 -4.142467
0.333431 -0.535204 -4.035594
0.331874 -0.214686 -4.016746
0.335674 -0.197145 -4.062748
0.330229 -0.354628 -3.99684
0.326262 -0.332548 -3.948821
0.336507 -0.170067 -4.072829
0.331672 -0.148685 -4.014301
0.334213 -0.314932 -4.045054
0.32469 -0.280972 -3.929803
0.340057 -0.124585 -4.115788
0.336903 -0.103357 -4.077615
0.329507 -0.26469 -3.988104
0.328712 -0.238754 -3.978484
0.357939 0.077682 -4.33222
0.337833 -0.070934 -4.088874
0.339912 -0.050275 -4.11404
0.339288 -0.024914 -4.106478
0.346243 -0.003076 -4.190659
0.351593 -0.740247 -4.255411
0.342392 -0.686875 -4.14405
0.338319 -0.64259 -4.09476
0.328961 -0.517524 -4.133368
0.317752 -0.479422 -3.99253
0.339688 0.024875 -4.268151
0.343383 0.049919 -4.314583
0.318417 -0.456633 -4.000885
0.320005 -0.430876 -4.020836
0.325305 -0.614868 -4.08743
0.3239 -0.585507 -4.069781
0.320755 -0.413704 -4.030254
0.31827 -0.384258 -3.99904
0.329924 -0.573443 -4.145466
0.321593 -0.535761 -4.040782
0.320755 -0.215356 -4.030258
0.326462 -0.198999 -4.101965
0.317146 -0.353483 -3.984916
0.316379 -0.334694 -3.975273
0.323581 -0.16973 -4.06577
0.32072 -0.149223 -4.029826
0.321357 -0.314292 -4.037825
0.314294 -0.282281 -3.949082
0.327822 -0.124654 -4.11905
0.325896 -0.103769 -4.094856
0.319085 -0.26603 -4.009282
0.316763 -0.238793 -3.980099
0.326385 -0.071127 -4.101002
0.328366 -0.050407 -4.125886
0.327083 -0.024928 -4.109772
0.332876 -0.003069 -4.18256
0.340106 -0.743194 -4.273399
0.331502 -0.690229 -4.165301
0.325505 -0.641678 -4.089945
0.317034 -0.518408 -4.141409
0.306984 -0.481422 -4.010127
0.326934 0.024884 -4.270725
0.331133 0.050035 -4.325583
0.30961 -0.461494 -4.044429
0.309317 -0.432892 -4.040597
0.313585 -0.616064 -4.096349
0.311006 -0.584345 -4.062664
0.310177 -0.415821 -4.051834
0.308157 -0.386704 -4.025442
0.319022 -0.576337 -4.167368
0.3094 -0.535755 -4.041685
0.307639 -0.214686 -4.018678
0.313804 -0.198819 -4.099205
0.306189 -0.354714 -3.999738
0.302997 -0.333165 -3.958043
0.312614 -0.170437 -4.083666
0.30869 -0.149284 -4.0324
0.311 -0.316145 -4.062587
0.301128 -0.28111 -3.933621
0.315437 -0.124669 -4.12054
0.313164 -0.103643 -4.090846
0.307412 -0.266394 -4.015706
0.30415 -0.238317 -3.973106
0.313976 -0.071118 -4.101457
0.315318 -0.050311 -4.118983
0.314558 -0.024917 -4.109062
0.320972 -0.003076 -4.19285
0.329458 -0.748287 -4.303699
0.319846 -0.692193 -4.17814
0.31555 -0.646557 -4.122018
0.304167 -0.517768 -4.137226
0.293587 -0.479295 -3.993314
0.315317 0.024985 -4.288882
0.317755 0.049982 -4.322048
0.29731 -0.461336 -4.04396
0.299062 -0.435707 -4.067791
0.302372 -0.618401 -4.112815
0.300573 -0.587906 -4.088341
0.298015 -0.415903 -4.053547
0.29545 -0.385965 -4.018663
0.305692 -0.574908 -4.157972
0.298573 -0.538212 -4.061143
0.29626 -0.215225 -4.02967
0.301669 -0.19897 -4.103251
0.294266 -0.354884 -4.002551
0.292661 -0.334998 -3.98072
0.300407 -0.170499 -4.086079
0.294861 -0.148445 -4.010653
0.298343 -0.315717 -4.058004
0.288912 -0.280768 -3.929729
0.303973 -0.125066 -4.134587
0.301717 -0.10395 -4.103895
0.295001 -0.266124 -4.012554
0.292997 -0.238994 -3.985289
0.301501 -0.071094 -4.10096
0.303671 -0.05044 -4.130473
0.302404 -0.024937 -4.113239
0.309556 -0.003088 -4.210526
0.308389 -0.694772 -4.194658
0.302663 -0.645587 -4.116765
0.29099 -0.516529 -4.128228
0.281929 -0.479955 -3.999684
0.304577 0.025166 -4.320975
0.309155 0.05071 -4.385924
0.284627 -0.460551 -4.037959
0.284373 -0.43203 -4.034343
0.290807 -0.620193 -4.125634
0.288055 -0.587525 -4.086585
0.28598 -0.416182 -4.057153
0.283022 -0.385548 -4.015186
0.293605 -0.575799 -4.165319
0.288095 -0.541543 -4.087159
0.286178 -0.216795 -4.059955
0.288852 -0.198667 -4.09789
0.281973 -0.354607 -4.000299
0.279993 -0.334209 -3.972211
0.288421 -0.1707 -4.091778
0.282953 -0.148544 -4.01421
0.286628 -0.316297 -4.066336
0.279053 -0.282789 -3.958877
0.290926 -0.124819 -4.127315
0.289196 -0.103899 -4.102766
0.284969 -0.268072 -4.042798
0.281701 -0.23961 -3.996438
0.288329 -0.070896 -4.090475
0.291833 -0.050547 -4.140176
0.291627 -0.025077 -4.137254
0.297206 -0.003092 -4.216404
0.296856 -0.697402 -4.211449
0.28913 -0.643106 -4.101834
0.280316 -0.519825 -4.155434
0.27171 -0.483237 -4.027869
0.29186 0.025193 -4.326573
0.296563 0.050819 -4.39629
0.272025 -0.459836 -4.032526
0.274724 -0.43603 -4.072541
0.278491 -0.620478 -4.128383
0.276598 -0.589378 -4.100322
0.272853 -0.414829 -4.044806
0.271031 -0.385718 -4.017795
0.281004 -0.575724 -4.165645
0.275097 -0.540227 -4.07808
0.273267 -0.216269 -4.05094
0.276817 -0.198901 -4.103574
0.27218 -0.357594 -4.034835
0.268459 -0.334767 -3.979669
0.276068 -0.170693 -4.092463
0.27111 -0.14869 -4.018975
0.274702 -0.316689 -4.072224
0.266484 -0.282125 -3.950397
0.279746 -0.125388 -4.146987
0.278543 -0.104545 -4.129158
0.271664 -0.266981 -4.02718
0.269181 -0.239197 -3.990369
0.279449 -0.071785 -4.142594
0.278461 -0.050388 -4.127939
0.279885 -0.025144 -4.149053
0.285794 -0.003106 -4.236648
0.28313 -0.694889 -4.197149
0.279315 -0.649048 -4.140595
0.266867 -0.51805 -4.142067
0.25993 -0.483924 -4.034396
0.280363 0.025334 -4.351534
0.26124 -0.462275 -4.054724
0.26277 -0.436579 -4.078479
0.265906 -0.620169 -4.127153
0.263796 -0.58841 -4.094407
0.26249 -0.417754 -4.074133
0.259886 -0.387169 -4.033713
0.269546 -0.578096 -4.183639
0.263159 -0.540972 -4.084515
0.260644 -0.215934 -4.045476
0.265763 -0.199896 -4.124929
0.260804 -0.358686 -4.047956
0.25727 -0.33583 -3.993104
0.264193 -0.170997 -4.100556
0.259462 -0.148962 -4.027128
0.262253 -0.316488 -4.070445
0.255679 -0.283355 -3.968408
0.26762 -0.125567 -4.153745
0.26736 -0.105045 -4.149712
0.260492 -0.267984 -4.043117
0.258941 -0.240868 -4.019043
0.26658 -0.071684 -4.137613
0.267871 -0.05074 -4.157652
0.268142 -0.025216 -4.161849
0.27255 -0.003101 -4.230267
0.272442 -0.699956 -4.228593
0.266505 -0.648268 -4.136441
0.254941 -0.519204 -4.152081
0.247644 -0.483694 -4.033245
0.269636 0.025561 -4.391404
0.248778 -0.461844 -4.051704
0.250414 -0.436482 -4.078348
0.254977 -0.623885 -4.152667
0.252466 -0.590795 -4.111777
0.250505 -0.41826 -4.079839
0.249039 -0.389231 -4.055963
0.257946 -0.580387 -4.201018
0.250476 -0.540188 -4.079368
0.248863 -0.216299 -4.053088
0.252888 -0.199554 -4.11865
0.247616 -0.357273 -4.032785
0.245712 -0.336495 -4.001769
0.252233 -0.171274 -4.107975
0.248743 -0.149822 -4.051145
0.250845 -0.317588 -4.085373
0.243381 -0.282973 -3.963811
0.256107 -0.126067 -4.171072
0.253743 -0.104591 -4.132566
0.247354 -0.266966 -4.028519
0.246069 -0.240136 -4.00759
0.254044 -0.071668 -4.137468
0.25518 -0.05071 -4.155981
0.256023 -0.025259 -4.169699
0.261327 -0.003119 -4.256078
0.26213 -0.706537 -4.269158
0.25564 -0.65238 -4.16347
0.242236 -0.518816 -4.149727
0.235107 -0.482929 -4.027593
0.258327 0.025754 -4.425372
0.237874 -0.464416 -4.07501
0.238929 -0.437979 -4.093069
0.242663 -0.624429 -4.157038
0.241738 -0.594914 -4.141196
0.23881 -0.419332 -4.091042
0.237714 -0.390724 -4.072261
0.245013 -0.579768 -4.197291
0.238594 -0.541145 -4.087332
0.236208 -0.215907 -4.04646
0.241091 -0.200073 -4.130104
0.235324 -0.357079 -4.031315
0.234035 -0.337062 -4.009235
0.239935 -0.17134 -4.110315
0.236886 -0.150051 -4.058072
0.238782 -0.317933 -4.090554
0.232227 -0.283954 -3.978271
0.242888 -0.125737 -4.160892
0.241672 -0.104762 -4.140058
0.236075 -0.267956 -4.044185
0.233899 -0.240052 -4.006912
0.241918 -0.071773 -4.144277
0.243774 -0.050946 -4.176077
0.244901 -0.02541 -4.195388
0.2491 -0.003127 -4.267316
0.252853 -0.716742 -4.331603
0.243954 -0.65472 -4.179153
0.231145 -0.522037 -4.176203
0.223481 -0.484062 -4.037736
0.226002 -0.465278 -4.083275
0.227495 -0.439741 -4.110244
0.23045 -0.625312 -4.163631
0.229189 -0.594764 -4.140864
0.22692 -0.420165 -4.099869
0.224072 -0.388368 -4.048401
0.232992 -0.581364 -4.209569
0.227433 -0.543937 -4.109124
0.226068 -0.217897 -4.08446
0.228493 -0.199951 -4.128286
0.224121 -0.358609 -4.049283
0.222544 -0.337976 -4.020791
0.228468 -0.172041 -4.127832
0.224942 -0.150249 -4.064123
0.226568 -0.318107 -4.093494
0.22075 -0.284627 -3.988383
0.231368 -0.1263 -4.180233
0.231119 -0.105646 -4.175732
0.224496 -0.268696 -4.056058
0.22392 -0.242331 -4.045658
0.230269 -0.07204 -4.160377
0.232954 -0.051338 -4.208884
0.234173 -0.025621 -4.230906
0.238532 -0.003157 -4.309667
0.232231 -0.657218 -4.195823
0.219521 -0.524359 -4.195463
0.21197 -0.48559 -4.051137
0.214426 -0.466889 -4.098075
0.214649 -0.438825 -4.102345
0.220977 -0.634168 -4.223283
0.218258 -0.599041 -4.171313
0.214462 -0.419985 -4.098774
0.212501 -0.389543 -4.061302
0.221436 -0.584375 -4.232058
0.21547 -0.545029 -4.118042
0.214621 -0.218787 -4.101815
0.217742 -0.201525 -4.161462
0.211766 -0.35837 -4.04724
0.210774 -0.338551 -4.028282
0.21581 -0.171875 -4.124527
0.213254 -0.150651 -4.075677
0.215133 -0.319462 -4.111599
0.209853 -0.286172 -4.010685
0.219765 -0.12688 -4.20013
0.217236 -0.105023 -4.151792
0.213946 -0.270828 -4.088907
0.210161 -0.24055 -4.016576
0.21863 -0.072341 -4.178437
0.220666 -0.051432 -4.217345
0.22175 -0.02566 -4.238057
0.225685 -0.00316 -4.313271
0.222152 -0.664929 -4.24574
0.206841 -0.524292 -4.195573
0.200411 -0.487193 -4.065138
0.202171 -0.467132 -4.100834
0.203412 -0.441288 -4.126007
0.208012 -0.633476 -4.219321
0.205942 -0.599813 -4.177334
0.20246 -0.420732 -4.106699
0.201317 -0.391614 -4.083521
0.209414 -0.586453 -4.247763
0.203968 -0.547491 -4.13728
0.201661 -0.21815 -4.090494
0.205291 -0.201623 -4.16412
0.200302 -0.359704 -4.062933
0.198436 -0.338229 -4.025076
0.204753 -0.173044 -4.153201
0.202081 -0.151491 -4.099018
0.204035 -0.321515 -4.138647
0.1982 -0.286813 -4.020289
0.207593 -0.127184 -4.210821
0.206684 -0.106034 -4.192371
0.201432 -0.270584 -4.085846
0.199739 -0.242605 -4.051507
0.20656 -0.072527 -4.189861
0.208081 -0.051466 -4.220706
0.209623 -0.02574 -4.251983
0.215511 -0.003202 -4.371427
0.211267 -0.671027 -4.28533
0.195093 -0.526739 -4.215758
0.189622 -0.491004 -4.097528
0.190273 -0.468291 -4.111605
0.1907 -0.440671 -4.120833
0.196168 -0.636337 -4.238993
0.194673 -0.60394 -4.206679
0.190651 -0.422011 -4.11977
0.189257 -0.392146 -4.089658
0.196977 -0.587571 -4.256469
0.191872 -0.548587 -4.146163
0.189699 -0.218583 -4.099205
0.192834 -0.201731 -4.16695
0.189057 -0.361636 -4.085339
0.18698 -0.339472 -4.040443
0.193084 -0.173817 -4.172355
0.188475 -0.150498 -4.07275
0.191151 -0.320842 -4.130583
0.185949 -0.28662 -4.018166
0.194886 -0.12718 -4.211297
0.194798 -0.106449 -4.209381
0.189526 -0.271182 -4.09546
0.187537 -0.242629 -4.052493
0.195555 -0.073138 -4.225752
0.196656 -0.05181 -4.249543
0.197923 -0.025887 -4.27691
0.182871 -0.528165 -4.227747
0.17788 -0.492715 -4.112356
0.178331 -0.469501 -4.122784
0.179002 -0.442478 -4.138291
0.185471 -0.643584 -4.287844
0.18213 -0.604423 -4.210609
0.17854 -0.422757 -4.127611
0.177452 -0.393321 -4.102468
0.185544 -0.592057 -4.289545
0.179956 -0.55039 -4.160347
0.178519 -0.220043 -4.127135
0.181227 -0.202806 -4.189725
0.176446 -0.361044 -4.079205
0.175226 -0.340312 -4.050989
0.180696 -0.174006 -4.177452
0.178636 -0.152587 -4.129824
0.178339 -0.320208 -4.122974
0.173873 -0.286693 -4.019731
0.183351 -0.127994 -4.23883
0.183091 -0.107027 -4.232837
0.177258 -0.271312 -4.097981
0.17677 -0.244644 -4.086705
0.183008 -0.073218 -4.230919
0.185001 -0.052137 -4.276986
0.187096 -0.026177 -4.325416
0.171119 -0.531264 -4.253087
0.165801 -0.493677 -4.120911
0.167463 -0.473933 -4.162227
0.166468 -0.442339 -4.137504
0.174256 -0.649991 -4.331075
0.171257 -0.610936 -4.256523
0.167585 -0.426559 -4.165261
0.165857 -0.395174 -4.122319
0.172654 -0.592217 -4.291247
0.168719 -0.554698 -4.193439
0.166864 -0.221092 -4.147339
0.169897 -0.204377 -4.222711
0.164503 -0.361834 -4.088645
0.163158 -0.340625 -4.055234
0.168395 -0.174314 -4.18538
0.165766 -0.152207 -4.120056
0.167602 -0.323484 -4.16568
0.162631 -0.288255 -4.042136
0.170787 -0.128159 -4.244841
0.171286 -0.107631 -4.257236
0.165589 -0.272447 -4.115647
0.164494 -0.244717 -4.088438
0.170897 -0.073497 -4.247585
0.173044 -0.052423 -4.300945
0.159024 -0.533724 -4.27328
0.153555 -0.494268 -4.12632
0.154516 -0.47273 -4.152148
0.15452 -0.443863 -4.15225
0.159258 -0.614175 -4.279589
0.154374 -0.424775 -4.148326
0.153717 -0.39593 -4.130678
0.161502 -0.598859 -4.339879
0.156639 -0.556718 -4.209202
0.154615 -0.221464 -4.154809
0.156875 -0.204006 -4.215543
0.152747 -0.363205 -4.104622
0.151058 -0.340921 -4.059227
0.156209 -0.174805 -4.197652
0.154603 -0.153461 -4.154502
0.155614 -0.324686 -4.18165
0.151008 -0.289345 -4.057896
0.159605 -0.129474 -4.2889
0.159018 -0.10802 -4.273139
0.153743 -0.273457 -4.13138
0.152519 -0.245291 -4.0985
0.1599 -0.07434 -4.296817
0.161656 -0.052941 -4.344007
0.146382 -0.534629 -4.280987
0.142296 -0.498426 -4.161479
0.143119 -0.476481 -4.185544
0.142399 -0.445125 -4.164501
0.149657 -0.628051 -4.376748
0.143532 -0.429777 -4.197623
0.141788 -0.397416 -4.146634
0.148681 -0.599944 -4.348216
0.144986 -0.560751 -4.240151
0.141729 -0.220912 -4.144901
0.144951 -0.205125 -4.239116
0.140833 -0.364412 -4.118699
0.140123 -0.344133 -4.097918
0.144385 -0.175823 -4.222561
0.141985 -0.153366 -4.152371
0.143324 -0.325419 -4.191537
0.139715 -0.291317 -4.085992
0.146593 -0.129407 -4.287149
0.146776 -0.108498 -4.292508
0.14201 -0.274865 -4.153104
0.140429 -0.245766 -4.106873
0.147088 -0.074415 -4.30161
0.13435 -0.538151 -4.30961
0.129619 -0.497943 -4.157861
0.130941 -0.478112 -4.200284
0.131221 -0.449863 -4.209248
0.130781 -0.429482 -4.195153
0.129598 -0.398389 -4.15719
0.137402 -0.608066 -4.407516
0.133072 -0.564461 -4.268625
0.129866 -0.222004 -4.165794
0.132117 -0.20505 -4.237997
0.129739 -0.368181 -4.161706
0.128823 -0.34699 -4.132337
0.132433 -0.17687 -4.248134
0.130508 -0.154607 -4.186377
0.130804 -0.325724 -4.195882
0.127837 -0.292338 -4.100717
0.135405 -0.131095 -4.343473
0.13473 -0.109228 -4.321803
0.1301 -0.276173 -4.173279
0.127877 -0.245449 -4.101993
0.138092 -0.076622 -4.429652
0.122252 -0.542139 -4.341938
0.118393 -0.503529 -4.204879
0.118442 -0.478792 -4.206638
0.118838 -0.451046 -4.220688
0.1186 -0.431194 -4.212252
0.117387 -0.3995 -4.169157
0.121276 -0.569521 -4.307274
0.118752 -0.224748 -4.21766
0.120451 -0.206967 -4.277997
0.117532 -0.369263 -4.174314
0.115993 -0.345894 -4.119658
0.120796 -0.178607 -4.290241
0.118414 -0.155304 -4.205632
0.119238 -0.328723 -4.23489
0.115475 -0.29235 -4.10125
0.122548 -0.131355 -4.352478
0.123144 -0.110527 -4.373615
0.117896 -0.277072 -4.187228
0.11699 -0.248602 -4.155059
0.109997 -0.546316 -4.375742
0.105901 -0.504439 -4.212814
0.106627 -0.482744 -4.241699
0.10708 -0.455178 -4.259701
0.106227 -0.432543 -4.225776
0.105826 -0.403364 -4.209826
0.106729 -0.226227 -4.245759
0.108609 -0.209008 -4.320527
0.105622 -0.371657 -4.201713
0.104472 -0.348915 -4.155976
0.107949 -0.178761 -4.294268
0.106739 -0.156788 -4.246162
0.106733 -0.32955 -4.245888
0.10351 -0.293498 -4.117684
0.110771 -0.132975 -4.406522
0.105403 -0.277432 -4.193015
0.105267 -0.250528 -4.18758
0.099032 -0.558919 -4.477005
0.094365 -0.510773 -4.266022
0.094747 -0.487442 -4.283283
0.09454 -0.456668 -4.273947
0.094318 -0.436415 -4.263901
0.094059 -0.407392 -4.252163
0.094287 -0.227101 -4.262465
0.095922 -0.209761 -4.336396
0.093588 -0.374212 -4.230896
0.092936 -0.352704 -4.201408
0.095633 -0.179958 -4.323344
0.095189 -0.158885 -4.303259
0.094739 -0.3324 -4.282916
0.091499 -0.294814 -4.136446
0.093803 -0.280562 -4.240622
0.093029 -0.251588 -4.205598
0.083476 -0.52316 -4.369746
0.082459 -0.491191 -4.316489
0.081869 -0.457886 -4.285614
0.082232 -0.440556 -4.304628
0.081293 -0.407682 -4.255461
0.082216 -0.229289 -4.303796
0.083433 -0.211252 -4.367494
0.080971 -0.374871 -4.238617
0.080453 -0.353529 -4.211491
0.084262 -0.183592 -4.410914
0.082437 -0.334899 -4.315384
0.080213 -0.299249 -4.19893
