-0.453942 -0.250932 -4.688968
-0.460464 -0.231094 -4.756343
-0.452962 -0.394525 -4.678851
-0.457974 -0.368773 -4.73062
-0.446197 -0.329947 -4.608973
-0.451332 -0.309808 -4.662016
-0.449932 -0.279258 -4.647552
-0.472801 -0.455781 -4.734842
-0.463019 -0.248218 -4.636882
-0.467766 -0.227667 -4.68442
-0.465948 -0.414665 -4.666216
-0.459255 -0.387923 -4.599188
-0.469668 -0.196706 -4.703469
-0.465872 -0.173072 -4.665451
-0.466084 -0.363966 -4.667574
-0.454847 -0.326183 -4.555046
-0.461089 -0.306944 -4.617551
-0.457341 -0.275282 -4.580021
-0.485391 -0.48522 -4.717
-0.479468 -0.44866 -4.659446
-0.47299 -0.246131 -4.596486
-0.480511 -0.227015 -4.669579
-0.473409 -0.408956 -4.600558
-0.468604 -0.384217 -4.553863
-0.477915 -0.194293 -4.644352
-0.472537 -0.170403 -4.592085
-0.475174 -0.360188 -4.617712
-0.46617 -0.324504 -4.530214
-0.487638 -0.143713 -4.738842
-0.487406 -0.120284 -4.736584
-0.471687 -0.304796 -4.583825
-0.468754 -0.273881 -4.555319
-0.499627 -0.506557 -4.715622
-0.493969 -0.479737 -4.662223
-0.488021 -0.443662 -4.606087
-0.484526 -0.244955 -4.5731
-0.490248 -0.22502 -4.627102
-0.483951 -0.406161 -4.567675
-0.480431 -0.3827 -4.534453
-0.492059 -0.194348 -4.644201
-0.482932 -0.169193 -4.558056
-0.487179 -0.358775 -4.598144
-0.477106 -0.322661 -4.503068
-0.495381 -0.141838 -4.675551
-0.496695 -0.119087 -4.687955
-0.484018 -0.30386 -4.568308
-0.476608 -0.270542 -4.498369
-0.512794 -0.538409 -4.704437
-0.507697 -0.500495 -4.657681
-0.503785 -0.47573 -4.621789
-0.498581 -0.440719 -4.574046
-0.49654 -0.244082 -4.555321
-0.502582 -0.224298 -4.610748
-0.496072 -0.404812 -4.551033
-0.492257 -0.381269 -4.516032
-0.499776 -0.191934 -4.585013
-0.493956 -0.168266 -4.531612
-0.501464 -0.359074 -4.600491
-0.486058 -0.319619 -4.459161
-0.507207 -0.141205 -4.653179
-0.506849 -0.118159 -4.649901
-0.495225 -0.302291 -4.543261
-0.488772 -0.269769 -4.48406
-0.512886 -0.081832 -4.705286
-0.52581 -0.565206 -4.692436
-0.520563 -0.531854 -4.645613
-0.516834 -0.495788 -4.612337
-0.513727 -0.47206 -4.584604
-0.511363 -0.43985 -4.563511
-0.505602 -0.241847 -4.512099
-0.51449 -0.223432 -4.591417
-0.507897 -0.403305 -4.532577
-0.503059 -0.379148 -4.489407
-0.512296 -0.191446 -4.571835
-0.507232 -0.168138 -4.526644
-0.509789 -0.35521 -4.549463
-0.501465 -0.320874 -4.475176
-0.51949 -0.140732 -4.636033
-0.516915 -0.117261 -4.613056
-0.506972 -0.301132 -4.524324
-0.500711 -0.26892 -4.468451
-0.517433 -0.080335 -4.617677
-0.525462 -0.057468 -4.689333
-0.530813 -0.555632 -4.611371
-0.531558 -0.528856 -4.61784
-0.528505 -0.493697 -4.591316
-0.528092 -0.472544 -4.587731
-0.520615 -0.436073 -4.522773
-0.519802 -0.242123 -4.515709
-0.526897 -0.222824 -4.577346
-0.519512 -0.401718 -4.513194
-0.513281 -0.376714 -4.45906
-0.524552 -0.190889 -4.556973
-0.516334 -0.16667 -4.485582
-0.523029 -0.354885 -4.543743
-0.510334 -0.317991 -4.433458
-0.531187 -0.14013 -4.614612
-0.53001 -0.117081 -4.604393
-0.518734 -0.300044 -4.506436
-0.513826 -0.268732 -4.463794
-0.52865 -0.079926 -4.592578
-0.53235 -0.056695 -4.624719
-0.538806 -0.028489 -4.680809
-0.560358 -0.595987 -4.742097
-0.54026 -0.551084 -4.572016
-0.539883 -0.523426 -4.568824
-0.538045 -0.489778 -4.553268
-0.537756 -0.468907 -4.550824
-0.531643 -0.433942 -4.49909
-0.530469 -0.240784 -4.489157
-0.536537 -0.221108 -4.540508
-0.530255 -0.399558 -4.487348
-0.526492 -0.376546 -4.455503
-0.536417 -0.190224 -4.539498
-0.528139 -0.166128 -4.469437
-0.53539 -0.353999 -4.530805
-0.521011 -0.316357 -4.409116
-0.540479 -0.138941 -4.573867
-0.540261 -0.116299 -4.572024
-0.529248 -0.298311 -4.478826
-0.524847 -0.267488 -4.441581
-0.54164 -0.0798 -4.583696
-0.543619 -0.056418 -4.600444
-0.548111 -0.028241 -4.638459
-0.570805 -0.591991 -4.708604
-0.551586 -0.548636 -4.550064
-0.55222 -0.522065 -4.555297
-0.551893 -0.489883 -4.552597
-0.548763 -0.466598 -4.526777
-0.545941 -0.434525 -4.503502
-0.543148 -0.240405 -4.480458
-0.547799 -0.220132 -4.518826
-0.540849 -0.3974 -4.4615
-0.539143 -0.375998 -4.44742
-0.546802 -0.189081 -4.510606
-0.541878 -0.166209 -4.469985
-0.546954 -0.352646 -4.511857
-0.534113 -0.316242 -4.405929
-0.555009 -0.139126 -4.578304
-0.551848 -0.115837 -4.552231
-0.54382 -0.298896 -4.486002
-0.537435 -0.267088 -4.433337
-0.550505 -0.079088 -4.541152
-0.5571 -0.056378 -4.595554
-0.559385 -0.028104 -4.614405
-0.572717 -0.003481 -4.72438
-0.582556 -0.589516 -4.687179
-0.561999 -0.545427 -4.521781
-0.564691 -0.520899 -4.543443
-0.561637 -0.486434 -4.518868
-0.560859 -0.46531 -4.512611
-0.557079 -0.432629 -4.482192
-0.580623 -0.622202 -4.671625
-0.555229 -0.239788 -4.467306
-0.561869 -0.220306 -4.520731
-0.553581 -0.396883 -4.45405
-0.550094 -0.374325 -4.425993
-0.558849 -0.188557 -4.496439
-0.552963 -0.165493 -4.44908
-0.559397 -0.351915 -4.500844
-0.546548 -0.315751 -4.397463
-0.564738 -0.13813 -4.543821
-0.564053 -0.115526 -4.53831
-0.552383 -0.296235 -4.444407
-0.546694 -0.265096 -4.398634
-0.563798 -0.079031 -4.536253
-0.564492 -0.05574 -4.541842
-0.567939 -0.027842 -4.569569
-0.577078 -0.003423 -4.643102
-0.591005 -0.583899 -4.640763
-0.57364 -0.543538 -4.50441
-0.605769 0.027858 -4.756691
-0.577376 -0.519984 -4.533741
-0.573891 -0.485273 -4.506373
-0.574851 -0.465621 -4.513917
-0.567587 -0.430348 -4.456876
-0.588626 -0.615837 -4.62208
-0.565555 -0.238462 -4.440919
-0.575232 -0.220203 -4.516909
-0.565092 -0.395539 -4.437281
-0.560332 -0.37226 -4.399904
-0.571306 -0.188194 -4.486079
-0.562618 -0.164394 -4.417854
-0.569924 -0.350045 -4.475223
-0.55711 -0.31423 -4.374609
-0.578126 -0.138055 -4.539633
-0.574061 -0.114791 -4.507714
-0.563686 -0.295136 -4.426247
-0.557974 -0.264157 -4.381395
-0.574379 -0.078608 -4.510206
-0.57733 -0.055657 -4.533381
-0.579058 -0.027714 -4.546952
-0.589412 -0.003413 -4.628255
-0.60356 -0.582511 -4.627925
-0.584901 -0.541389 -4.484853
-0.616598 0.027701 -4.727898
-0.587828 -0.517153 -4.5073
-0.585646 -0.483759 -4.490569
-0.585967 -0.463647 -4.49303
-0.582688 -0.431579 -4.467887
-0.621891 -0.663115 -4.768483
-0.598074 -0.611249 -4.585859
-0.577435 -0.237839 -4.427607
-0.585449 -0.21893 -4.489054
-0.579069 -0.395947 -4.440134
-0.57416 -0.372624 -4.402498
-0.582306 -0.187381 -4.464958
-0.57601 -0.164414 -4.416677
-0.578835 -0.347295 -4.438345
-0.569184 -0.313614 -4.364341
-0.592778 -0.138279 -4.545255
-0.587795 -0.114818 -4.507047
-0.576341 -0.294782 -4.419217
-0.573243 -0.265108 -4.395461
-0.585627 -0.078293 -4.490421
-0.591114 -0.055668 -4.532493
-0.589626 -0.027567 -4.521083
-0.601004 -0.0034 -4.608329
-0.613643 -0.578858 -4.597076
-0.594635 -0.53796 -4.454676
-0.625751 0.027476 -4.687784
-0.601485 -0.517209 -4.505998
-0.598487 -0.483194 -4.48354
-0.596743 -0.461503 -4.470472
-0.595098 -0.43081 -4.458147
-0.630199 -0.656788 -4.721108
-0.60901 -0.60836 -4.562372
-0.591517 -0.238133 -4.431319
-0.595632 -0.217705 -4.46215
-0.592428 -0.395927 -4.438144
-0.587048 -0.372378 -4.39784
-0.595877 -0.187415 -4.463986
-0.58993 -0.164582 -4.41943
-0.594169 -0.348439 -4.451191
-0.578674 -0.311637 -4.335112
-0.600939 -0.137015 -4.501907
-0.597807 -0.114135 -4.478444
-0.591346 -0.295622 -4.430041
-0.584474 -0.264194 -4.378559
-0.596816 -0.077986 -4.471021
-0.601626 -0.055377 -4.507052
-0.601789 -0.0275 -4.508271
-0.612692 -0.003387 -4.589956
-0.626887 -0.578289 -4.590691
-0.609437 -0.539173 -4.4629
-0.638224 0.027405 -4.673712
-0.644827 0.054967 -4.722066
-0.610346 -0.513235 -4.469558
-0.60917 -0.480955 -4.46095
-0.608126 -0.459918 -4.453302
-0.606502 -0.429367 -4.441409
-0.641674 -0.653975 -4.698974
-0.621933 -0.607545 -4.554408
-0.600806 -0.23653 -4.399696
-0.611137 -0.218438 -4.475355
-0.603173 -0.394204 -4.417034
-0.59674 -0.370165 -4.369923
-0.607721 -0.186918 -4.450335
-0.59818 -0.163197 -4.380468
-0.607693 -0.348498 -4.450135
-0.592026 -0.311785 -4.335401
-0.610318 -0.13608 -4.469355
-0.608443 -0.1136 -4.455626
-0.599 -0.292834 -4.386474
-0.596578 -0.263709 -4.36874
-0.609505 -0.077885 -4.463397
-0.613079 -0.055185 -4.489571
-0.614929 -0.02748 -4.503119
-0.624259 -0.003375 -4.571446
-0.640884 -0.578428 -4.589883
-0.619868 -0.536553 -4.439367
-0.64995 0.027306 -4.654814
-0.654922 0.054621 -4.690421
-0.62081 -0.510757 -4.44612
-0.621341 -0.479966 -4.449922
-0.651953 -0.676116 -4.669156
-0.621561 -0.459923 -4.451497
-0.617441 -0.427667 -4.421985
-0.653033 -0.651173 -4.676892
-0.634447 -0.60638 -4.54378
-0.613241 -0.23621 -4.391912
-0.624546 -0.218408 -4.472876
-0.614478 -0.392916 -4.400768
-0.608473 -0.369289 -4.357758
-0.620949 -0.18686 -4.447111
-0.61219 -0.163411 -4.384382
-0.620219 -0.347997 -4.441887
-0.605552 -0.312019 -4.336839
-0.628923 -0.137199 -4.504223
-0.624481 -0.114075 -4.472411
-0.612731 -0.293075 -4.388256
-0.607127 -0.262574 -4.348125
-0.620894 -0.077626 -4.446715
-0.628131 -0.055318 -4.49855
-0.628561 -0.027482 -4.501627
-0.635766 -0.003363 -4.553227
-0.65318 -0.577064 -4.577107
-0.628024 -0.532122 -4.400832
-0.661663 0.02721 -4.636551
-0.66585 0.054359 -4.665894
-0.633075 -0.509837 -4.436226
-0.635051 -0.480187 -4.450074
-0.658901 -0.668877 -4.617201
-0.633873 -0.459118 -4.441813
-0.629345 -0.426698 -4.410086
-0.662451 -0.6466 -4.642074
-0.643196 -0.601748 -4.507149
-0.627177 -0.236471 -4.394896
-0.633927 -0.217002 -4.442198
-0.627707 -0.392891 -4.398609
-0.62195 -0.369489 -4.358268
-0.633647 -0.18665 -4.440231
-0.622059 -0.162535 -4.359032
-0.633962 -0.348189 -4.442439
-0.617814 -0.311607 -4.329281
-0.638519 -0.136347 -4.474376
-0.636271 -0.113772 -4.458622
-0.62526 -0.292745 -4.381458
-0.620364 -0.262627 -4.347151
-0.633169 -0.077487 -4.436883
-0.636428 -0.054864 -4.45972
-0.637846 -0.027299 -4.469657
-0.646755 -0.003349 -4.532082
-0.664102 -0.574574 -4.555374
-0.644762 -0.535001 -4.422714
-0.670696 0.027011 -4.600602
-0.676332 0.054072 -4.639266
-0.647763 -0.510872 -4.443295
-0.650078 -0.481378 -4.459174
-0.66687 -0.662959 -4.574359
-0.645851 -0.458115 -4.430184
-0.642625 -0.426687 -4.40805
-0.674596 -0.64483 -4.627354
-0.655946 -0.600979 -4.499429
-0.638865 -0.235894 -4.382261
-0.645112 -0.216262 -4.425112
-0.637142 -0.390545 -4.370444
-0.634369 -0.369069 -4.351422
-0.647214 -0.186702 -4.439529
-0.637189 -0.163044 -4.370765
-0.644642 -0.346729 -4.421888
-0.628221 -0.3103 -4.309248
-0.65181 -0.136306 -4.471054
-0.646563 -0.11322 -4.435062
-0.641449 -0.294111 -4.399983
-0.630784 -0.261512 -4.326828
-0.672486 0.083305 -4.612881
-0.645955 -0.077416 -4.430894
-0.650511 -0.054918 -4.462144
-0.648674 -0.027188 -4.449546
-0.660117 -0.003347 -4.528041
-0.674209 -0.571497 -4.528971
-0.655956 -0.533259 -4.406357
-0.682719 0.026938 -4.586139
-0.687932 0.053885 -4.621158
-0.658729 -0.508993 -4.424984
-0.659279 -0.478298 -4.428677
-0.682848 -0.665087 -4.587005
-0.656211 -0.456031 -4.408075
-0.651266 -0.423662 -4.374856
-0.686119 -0.642555 -4.608975
-0.66976 -0.6012 -4.499089
-0.650508 -0.235326 -4.369764
-0.659132 -0.216484 -4.427693
-0.652548 -0.391882 -4.383465
-0.642889 -0.366447 -4.318583
-0.655041 -0.185131 -4.400209
-0.647609 -0.162352 -4.350287
-0.657709 -0.346588 -4.418136
-0.640372 -0.309892 -4.301671
-0.661319 -0.135492 -4.442385
-0.664527 -0.114008 -4.463932
-0.649933 -0.291962 -4.365897
-0.644994 -0.261985 -4.332721
-0.68397 0.08301 -4.594539
-0.660959 -0.077609 -4.439968
-0.663236 -0.054858 -4.455264
-0.662815 -0.027218 -4.452435
-0.673575 -0.003346 -4.524716
-0.687797 -0.571441 -4.52647
-0.667463 -0.531841 -4.392649
-0.694439 0.026856 -4.57018
-0.698945 0.053661 -4.599832
-0.670908 -0.508112 -4.415321
-0.674131 -0.479364 -4.43653
-0.705969 -0.704696 -4.646059
-0.692794 -0.661379 -4.559357
-0.670457 -0.456681 -4.412355
-0.665986 -0.424636 -4.382926
-0.701185 -0.643628 -4.614576
-0.681025 -0.599175 -4.481899
-0.664768 -0.23571 -4.374911
-0.670957 -0.215993 -4.415643
-0.663785 -0.390717 -4.368443
-0.656635 -0.366851 -4.321387
-0.669773 -0.185536 -4.40785
-0.65831 -0.161758 -4.332412
-0.668103 -0.345076 -4.396862
-0.651901 -0.309209 -4.29023
-0.67703 -0.135957 -4.455613
-0.674244 -0.113378 -4.437274
-0.664118 -0.292412 -4.370636
-0.656688 -0.261439 -4.321734
-0.694424 0.082606 -4.570084
-0.671978 -0.077337 -4.422364
-0.675107 -0.054731 -4.442951
-0.673675 -0.027114 -4.43353
-0.683734 -0.003329 -4.499728
-0.700779 -0.570898 -4.520074
-0.678747 -0.530309 -4.377964
-0.708698 0.026875 -4.571155
-0.710589 0.053493 -4.583351
-0.685046 -0.508724 -4.418597
-0.683304 -0.476433 -4.40736
-0.712538 -0.697414 -4.595923
-0.7029 -0.657969 -4.533755
-0.681051 -0.454871 -4.392828
-0.67747 -0.423553 -4.369728
-0.714187 -0.642806 -4.606556
-0.692512 -0.597426 -4.466752
-0.678306 -0.23583 -4.375118
-0.687666 -0.217065 -4.435497
-0.673355 -0.388638 -4.34319
-0.673702 -0.369062 -4.345424
-0.680901 -0.184949 -4.391857
-0.672053 -0.161922 -4.334791
-0.683776 -0.346299 -4.410407
-0.665008 -0.309288 -4.28935
-0.690125 -0.13589 -4.451353
-0.685187 -0.112976 -4.419503
-0.674153 -0.291054 -4.348336
-0.669242 -0.261253 -4.316657
-0.709456 0.082752 -4.576038
-0.684366 -0.07723 -4.414211
-0.685629 -0.054502 -4.422356
-0.685111 -0.027038 -4.419014
-0.69508 -0.003319 -4.483316
-0.71396 -0.570541 -4.515115
-0.692328 -0.530601 -4.378309
-0.718727 0.026735 -4.545258
-0.723001 0.053389 -4.572284
-0.692765 -0.504642 -4.381075
-0.695303 -0.475551 -4.397125
-0.729916 -0.700794 -4.616018
-0.714328 -0.655911 -4.517442
-0.699586 -0.458336 -4.424208
-0.692408 -0.424635 -4.378817
-0.723503 -0.638769 -4.575464
-0.707658 -0.598847 -4.475259
-0.690716 -0.235564 -4.368114
-0.698367 -0.216237 -4.416502
-0.690769 -0.391083 -4.36845
-0.67906 -0.364901 -4.294404
-0.693257 -0.184713 -4.384185
-0.684619 -0.161803 -4.329559
-0.694346 -0.344944 -4.391072
-0.677399 -0.309041 -4.283898
-0.700773 -0.135354 -4.431716
-0.695308 -0.112458 -4.397156
-0.684993 -0.290093 -4.331923
-0.682936 -0.261513 -4.318918
-0.719594 0.082333 -4.550739
-0.756862 0.113343 -4.786426
-0.69583 -0.077026 -4.400457
-0.700105 -0.054591 -4.427489
-0.695974 -0.026943 -4.401368
-0.712065 -0.003335 -4.503127
-0.726642 -0.569809 -4.507156
-0.706266 -0.531155 -4.380767
-0.734554 0.026812 -4.556233
-0.731856 0.053032 -4.539495
-0.710708 -0.508025 -4.408322
-0.709972 -0.476497 -4.403758
-0.736802 -0.694168 -4.570172
-0.728447 -0.656359 -4.51835
-0.707516 -0.454858 -4.388522
-0.705551 -0.424599 -4.376335
-0.731757 -0.633967 -4.53888
-0.715369 -0.594045 -4.437233
-0.699791 -0.234193 -4.340605
-0.711173 -0.216082 -4.411204
-0.69871 -0.388177 -4.3339
-0.695689 -0.366842 -4.315163
-0.707068 -0.184868 -4.385742
-0.6963 -0.161484 -4.318951
-0.709202 -0.345732 -4.398978
-0.687507 -0.307783 -4.26441
-0.714526 -0.135428 -4.432003
-0.711737 -0.112961 -4.414701
-0.699401 -0.290652 -4.338189
-0.695274 -0.261256 -4.312585
-0.730058 0.081968 -4.528345
-0.768004 0.11286 -4.763711
-0.709908 -0.077114 -4.403361
-0.710854 -0.054392 -4.409226
-0.71242 -0.027063 -4.418939
-0.722591 -0.003321 -4.482029
-0.739914 -0.569564 -4.503006
-0.719567 -0.531222 -4.379176
-0.74489 0.026691 -4.533292
-0.749903 0.053342 -4.563798
-0.722273 -0.506813 -4.395647
-0.723015 -0.476342 -4.400163
-0.750564 -0.694152 -4.567822
-0.74007 -0.65459 -4.503956
-0.721163 -0.45512 -4.388893
-0.71665 -0.42336 -4.361425
-0.749625 -0.637524 -4.562107
-0.730864 -0.595769 -4.447932
-0.714276 -0.234652 -4.346976
-0.724767 -0.216169 -4.410822
-0.714199 -0.389497 -4.346507
-0.708433 -0.366704 -4.31142
-0.718729 -0.184467 -4.37408
-0.710457 -0.161743 -4.323737
-0.720372 -0.34473 -4.384077
-0.704175 -0.309458 -4.285504
-0.729549 -0.135737 -4.439924
-0.725458 -0.113025 -4.41503
-0.714108 -0.291315 -4.345954
-0.706423 -0.260572 -4.299188
-0.740281 0.081589 -4.505238
-0.776147 0.111962 -4.723516
-0.716888 -0.076442 -4.362871
-0.728295 -0.054704 -4.432292
-0.721513 -0.026906 -4.391023
-0.73749 -0.003327 -4.488254
-0.754857 -0.570598 -4.508919
-0.729337 -0.528734 -4.356481
-0.758692 0.026695 -4.531824
-0.760266 0.053105 -4.541228
-0.736277 -0.507331 -4.397936
-0.731829 -0.473462 -4.371367
-0.761155 -0.691263 -4.546536
-0.752192 -0.653324 -4.492997
-0.731161 -0.453115 -4.367373
-0.729655 -0.423276 -4.358379
-0.761967 -0.636344 -4.551387
-0.741114 -0.593239 -4.426825
-0.725353 -0.233998 -4.332683
-0.73542 -0.215394 -4.392814
-0.72812 -0.389934 -4.34921
-0.718327 -0.365125 -4.290714
-0.734944 -0.185229 -4.389974
-0.721078 -0.161203 -4.30715
-0.733932 -0.34489 -4.383925
-0.716125 -0.309039 -4.277564
-0.740993 -0.135382 -4.426104
-0.733309 -0.11219 -4.380207
-0.726319 -0.290958 -4.338454
-0.716702 -0.2596 -4.281007
-0.754192 0.081625 -4.504947
-0.79118 0.112074 -4.725882
-0.733609 -0.076815 -4.381998
-0.738428 -0.054466 -4.410782
-0.735101 -0.026918 -4.390911
-0.749954 -0.003323 -4.479632
-0.76802 -0.570276 -4.504082
-0.744623 -0.530265 -4.366873
-0.775352 0.026799 -4.547082
-0.775365 0.053201 -4.547159
-0.749573 -0.507355 -4.395902
-0.748666 -0.475785 -4.390579
-0.775142 -0.691511 -4.545849
-0.767381 -0.654724 -4.500334
-0.745111 -0.453591 -4.369735
-0.739972 -0.421666 -4.339595
-0.773328 -0.634407 -4.535214
-0.757725 -0.595805 -4.443708
-0.739378 -0.234302 -4.33611
-0.750336 -0.215875 -4.400372
-0.736404 -0.387394 -4.318672
-0.737101 -0.36804 -4.322759
-0.747808 -0.185137 -4.385548
-0.734518 -0.161302 -4.307609
-0.7455 -0.344128 -4.372013
-0.725145 -0.307395 -4.252638
-0.754779 -0.135461 -4.426429
-0.747196 -0.112292 -4.381961
-0.740676 -0.29146 -4.343723
-0.73008 -0.259767 -4.281583
-0.766083 0.081445 -4.492726
-0.800026 0.111322 -4.691782
-0.746298 -0.076762 -4.376691
-0.748534 -0.054234 -4.389805
-0.749425 -0.026957 -4.395031
-0.758538 -0.003301 -4.448476
-0.778302 -0.567869 -4.482745
-0.757399 -0.529992 -4.362356
-0.783779 0.026619 -4.51429
-0.787179 0.053073 -4.533873
-0.760419 -0.505753 -4.379747
-0.760208 -0.474726 -4.378532
-0.787406 -0.690246 -4.535181
-0.778722 -0.652856 -4.485163
-0.756061 -0.452259 -4.354644
-0.752485 -0.421346 -4.334047
-0.78655 -0.634041 -4.53025
-0.770802 -0.595556 -4.439547
-0.756625 -0.235602 -4.357895
-0.764729 -0.216193 -4.404569
-0.753493 -0.389496 -4.339854
-0.74602 -0.366021 -4.296815
-0.757676 -0.184321 -4.363949
-0.748003 -0.161409 -4.308233
-0.755093 -0.3425 -4.349073
-0.738304 -0.307535 -4.252375
-0.765228 -0.13495 -4.407446
-0.761963 -0.112522 -4.388641
-0.750788 -0.290306 -4.324274
-0.742281 -0.259519 -4.275279
-0.776335 0.081101 -4.471419
-0.816325 0.111617 -4.701745
-0.761299 -0.076944 -4.384815
-0.760905 -0.054173 -4.382547
-0.765609 -0.027061 -4.409641
-0.773793 -0.003309 -4.456778
-0.808042 -0.738767 -4.654038
-0.79145 -0.567605 -4.478292
-0.769192 -0.529055 -4.352349
-0.802183 0.026779 -4.539026
-0.801999 0.053149 -4.537985
-0.772127 -0.504773 -4.368957
-0.777463 -0.477213 -4.399149
-0.80126 -0.690401 -4.533805
-0.791169 -0.651969 -4.476705
-0.771913 -0.45386 -4.367745
-0.767787 -0.422576 -4.344403
-0.800722 -0.634447 -4.530758
-0.781738 -0.593696 -4.423341
-0.764823 -0.234089 -4.32763
-0.773153 -0.214843 -4.374764
-0.761783 -0.387059 -4.31043
-0.755999 -0.364585 -4.2777
-0.772294 -0.18467 -4.369905
-0.759492 -0.161091 -4.297468
-0.768291 -0.342538 -4.34725
-0.75141 -0.307652 -4.251736
-0.779713 -0.135157 -4.411885
-0.772486 -0.112128 -4.370989
-0.761372 -0.289373 -4.308103
-0.753954 -0.259101 -4.26613
-0.791729 0.081297 -4.479872
-0.829461 0.111477 -4.693372
-0.770101 -0.076505 -4.357497
-0.778531 -0.054481 -4.405193
-0.775459 -0.026941 -4.38781
-0.789153 -0.003317 -4.465298
-0.814228 -0.731715 -4.607181
-0.803521 -0.566596 -4.467931
-0.779926 -0.52744 -4.336732
-0.813512 0.026702 -4.523487
-0.813123 0.052983 -4.52132
-0.781526 -0.502348 -4.345632
-0.786647 -0.474752 -4.374105
-0.813741 -0.689394 -4.524758
-0.801332 -0.649268 -4.455762
-0.784669 -0.453621 -4.363104
-0.779304 -0.42172 -4.333275
-0.815945 -0.635665 -4.537012
-0.795191 -0.593783 -4.421612
-0.776131 -0.233565 -4.31563
-0.786363 -0.214849 -4.372525
-0.775603 -0.387471 -4.312694
-0.768269 -0.364288 -4.271917
-0.786745 -0.18497 -4.374647
-0.770815 -0.16075 -4.286074
-0.78446 -0.34388 -4.361944
-0.763512 -0.307363 -4.245464
-0.791582 -0.134913 -4.401545
-0.788071 -0.112472 -4.382023
-0.771854 -0.288436 -4.291851
-0.76749 -0.259328 -4.267581
-0.806348 0.081409 -4.48365
-0.843787 0.1115 -4.691827
-0.782409 -0.076424 -4.350541
-0.787981 -0.054218 -4.381523
-0.785842 -0.026844 -4.369631
-0.797252 -0.003295 -4.433074
-0.824542 -0.728555 -4.584816
-0.815024 -0.565231 -4.454729
-0.792899 -0.527372 -4.333797
-0.824316 0.02661 -4.505514
-0.825963 0.052932 -4.51452
-0.79856 -0.504834 -4.364741
-0.799445 -0.47452 -4.369576
-0.826878 -0.688972 -4.519517
-0.817203 -0.651209 -4.466638
-0.797953 -0.453694 -4.361421
-0.793488 -0.422315 -4.337017
-0.824291 -0.631578 -4.505377
-0.80649 -0.59229 -4.408082
-0.789164 -0.233571 -4.313381
-0.800441 -0.215089 -4.375022
-0.789075 -0.387701 -4.312896
-0.778662 -0.363128 -4.255983
-0.796237 -0.184115 -4.352042
-0.784625 -0.160932 -4.288576
-0.794741 -0.342642 -4.343863
-0.780066 -0.308849 -4.263655
-0.805117 -0.134957 -4.400577
-0.802916 -0.112701 -4.388547
-0.788915 -0.28995 -4.31202
-0.78071 -0.259446 -4.267176
-0.81701 0.081126 -4.465584
-0.858541 0.111579 -4.692584
-0.802252 -0.07707 -4.384917
-0.80035 -0.054161 -4.374526
-0.796089 -0.026746 -4.351234
-0.811625 -0.003299 -4.436148
-0.83997 -0.729949 -4.591074
-0.831314 -0.567181 -4.467609
-0.809803 -0.529882 -4.352005
-0.840985 0.026708 -4.519581
-0.839458 0.052925 -4.511377
-0.81201 -0.505013 -4.363867
-0.809602 -0.472758 -4.350929
-0.840986 -0.689367 -4.519591
-0.83143 -0.651804 -4.468235
-0.813015 -0.454764 -4.369269
-0.805547 -0.421782 -4.329136
-0.844753 -0.636763 -4.539836
-0.819727 -0.592251 -4.40534
-0.801193 -0.233287 -4.305734
-0.811654 -0.214566 -4.361954
-0.799478 -0.386444 -4.296521
-0.794919 -0.364699 -4.272018
-0.811063 -0.184502 -4.358779
-0.799269 -0.161278 -4.295395
-0.811069 -0.344013 -4.358812
-0.788684 -0.307198 -4.238511
-0.817203 -0.134762 -4.391774
-0.812157 -0.11215 -4.364655
-0.801866 -0.289932 -4.309354
-0.795662 -0.260127 -4.276011
-0.830045 0.081084 -4.460792
-0.873367 0.111666 -4.693611
-0.81216 -0.076757 -4.364672
-0.815261 -0.054275 -4.381336
-0.815322 -0.026948 -4.381665
-0.82617 -0.003304 -4.439963
-0.849989 -0.72668 -4.567971
-0.842517 -0.565659 -4.4531
-0.822597 -0.529671 -4.34781
-0.848707 0.026524 -4.485814
-0.855249 0.05306 -4.520394
-0.822452 -0.503352 -4.347047
-0.824132 -0.473568 -4.355923
-0.851493 -0.68685 -4.500539
-0.845114 -0.651967 -4.466825
-0.821967 -0.45244 -4.344483
-0.816954 -0.420934 -4.317986
-0.85454 -0.633869 -4.516645
-0.833718 -0.592754 -4.406589
-0.818148 -0.234426 -4.324297
-0.826264 -0.214945 -4.367192
-0.817049 -0.38864 -4.31849
-0.813076 -0.367081 -4.29749
-0.825223 -0.18473 -4.361692
-0.811208 -0.161077 -4.287616
-0.822867 -0.343452 -4.349238
-0.806895 -0.30928 -4.264819
-0.82925 -0.134568 -4.382973
-0.829622 -0.112735 -4.38494
-0.814857 -0.289931 -4.3069
-0.806371 -0.259425 -4.262052
-0.846735 0.081395 -4.475393
-0.886622 0.111553 -4.686215
-0.823469 -0.076585 -4.352419
-0.829526 -0.054344 -4.384432
-0.827592 -0.026917 -4.374213
-0.83886 -0.003301 -4.43377
-0.867238 -0.729604 -4.583759
-0.857713 -0.566829 -4.459743
-0.835694 -0.529665 -4.345253
-0.866355 0.026651 -4.504675
-0.871884 0.053244 -4.533426
-0.840525 -0.506344 -4.370372
-0.836627 -0.473208 -4.350104
-0.866426 -0.687934 -4.505048
-0.858895 -0.652206 -4.46589
-0.835956 -0.452922 -4.346613
-0.830395 -0.421149 -4.3177
-0.868351 -0.63401 -4.515054
-0.847214 -0.592902 -4.405151
-0.82955 -0.233964 -4.313307
-0.841827 -0.215559 -4.377141
-0.828074 -0.387706 -4.305632
-0.820454 -0.364602 -4.266009
-0.836298 -0.184273 -4.348395
-0.823359 -0.160925 -4.281116
-0.83519 -0.343127 -4.342633
-0.818894 -0.308956 -4.257903
-0.843729 -0.13477 -4.387033
-0.8385 -0.112154 -4.359843
-0.831209 -0.291111 -4.321933
-0.821476 -0.260139 -4.271325
-0.860052 0.081379 -4.471903
-0.89601 0.110966 -4.65887
-0.834198 -0.076366 -4.337476
-0.846953 -0.054616 -4.403796
-0.839628 -0.02688 -4.36571
-0.854253 -0.003309 -4.441752
-0.880105 -0.728816 -4.576174
-0.868536 -0.565121 -4.44371
-0.843792 -0.526542 -4.317115
-0.880578 0.02667 -4.505321
-0.881468 0.052998 -4.509876
-0.854917 -0.507064 -4.374032
-0.852524 -0.474757 -4.361791
-0.881191 -0.688858 -4.508461
-0.872662 -0.652431 -4.464822
-0.852544 -0.45478 -4.36189
-0.848507 -0.423692 -4.341238
-0.883779 -0.635315 -4.521701
-0.860067 -0.592606 -4.400382
-0.842329 -0.233901 -4.309626
-0.856036 -0.215814 -4.379759
-0.83998 -0.38721 -4.297611
-0.831655 -0.363875 -4.255018
-0.849284 -0.184246 -4.345211
-0.835154 -0.160711 -4.272918
-0.847095 -0.342647 -4.334013
-0.82875 -0.307848 -4.240154
-0.85603 -0.134625 -4.379729
-0.851255 -0.112103 -4.355295
-0.844252 -0.291115 -4.319467
-0.834143 -0.260073 -4.267747
-0.872389 0.081272 -4.463426
-0.91644 0.111744 -4.688803
-0.851249 -0.076724 -4.355266
-0.855066 -0.054288 -4.374794
-0.851667 -0.026845 -4.357407
-0.865799 -0.003302 -4.429706
-0.890517 -0.726055 -4.556171
-0.885415 -0.567352 -4.4586
-0.858898 -0.527826 -4.325073
-0.895677 0.026715 -4.510273
-0.894458 0.052962 -4.504137
-0.864983 -0.505241 -4.355713
-0.866173 -0.475029 -4.361706
-0.893855 -0.688141 -4.501099
-0.887984 -0.653801 -4.471536
-0.869332 -0.456691 -4.377612
-0.855741 -0.420813 -4.309175
-0.897099 -0.635092 -4.517434
-0.874851 -0.593635 -4.405401
-0.85935 -0.235003 -4.327348
-0.867308 -0.215334 -4.36742
-0.851467 -0.386542 -4.287653
-0.850469 -0.366453 -4.282625
-0.863796 -0.184547 -4.349736
-0.843989 -0.159944 -4.249996
-0.864432 -0.344347 -4.352937
-0.839472 -0.307094 -4.22725
-0.875722 -0.135629 -4.409789
-0.867262 -0.112475 -4.367187
-0.849689 -0.288539 -4.278699
-0.845053 -0.259472 -4.255351
-0.887223 0.081398 -4.467703
-0.929781 0.111648 -4.682007
-0.861516 -0.076469 -4.338252
-0.868375 -0.054295 -4.372795
-0.863405 -0.026801 -4.347765
-0.876552 -0.003292 -4.41397
-0.911748 -0.732072 -4.591201
-0.901958 -0.569309 -4.471282
-0.871982 -0.527853 -4.322683
-0.910019 0.026737 -4.511245
-0.91077 0.053122 -4.514967
-0.87847 -0.505445 -4.354844
-0.878337 -0.474497 -4.354184
-0.90637 -0.687342 -4.493155
-0.898435 -0.651603 -4.453815
-0.883035 -0.456952 -4.377477
-0.871163 -0.42199 -4.318623
-0.909302 -0.634105 -4.507686
-0.887055 -0.592915 -4.397405
-0.8676 -0.233711 -4.300957
-0.883452 -0.216062 -4.379543
-0.865979 -0.387251 -4.292921
-0.861179 -0.365519 -4.269125
-0.875989 -0.184353 -4.342544
-0.864779 -0.161433 -4.286977
-0.879151 -0.344973 -4.358219
-0.852092 -0.307049 -4.224082
-0.884383 -0.134922 -4.384156
-0.877884 -0.11215 -4.351942
-0.867379 -0.290141 -4.299861
-0.86177 -0.260648 -4.272056
-0.901778 0.081496 -4.470389
-0.942829 0.111522 -4.673891
-0.878471 -0.076808 -4.354848
-0.880084 -0.054204 -4.362844
-0.880271 -0.026916 -4.363775
-0.890204 -0.003293 -4.413012
-0.929803 -0.735404 -4.60932
-0.912394 -0.567416 -4.453677
-0.886227 -0.528576 -4.325948
-0.923738 0.026741 -4.509049
-0.928117 0.053336 -4.530425
-0.8901 -0.504595 -4.344854
-0.893789 -0.475733 -4.362859
-0.925782 -0.691724 -4.519028
-0.914479 -0.653473 -4.463856
-0.888638 -0.45308 -4.337717
-0.883781 -0.421798 -4.314008
-0.923302 -0.634386 -4.506921
-0.90363 -0.595099 -4.410897
-0.883104 -0.234384 -4.310703
-0.894013 -0.215425 -4.363952
-0.884905 -0.389887 -4.319492
-0.871158 -0.364309 -4.252391
-0.889109 -0.184359 -4.340015
-0.877182 -0.161337 -4.281796
-0.890951 -0.344455 -4.349007
-0.870211 -0.30896 -4.24777
-0.896683 -0.134784 -4.376986
-0.89611 -0.112793 -4.374187
-0.8814 -0.290489 -4.302387
-0.873419 -0.260281 -4.263428
-0.915785 0.081543 -4.470228
-0.956364 0.111457 -4.668308
-0.89085 -0.076744 -4.348516
-0.896799 -0.054421 -4.377553
-0.893617 -0.026922 -4.362021
-0.90746 -0.003308 -4.429592
-0.924025 -0.566314 -4.442265
-0.89849 -0.528117 -4.319505
-0.935007 0.026674 -4.49506
-0.941163 0.053302 -4.524655
-0.905281 -0.505757 -4.352154
-0.906568 -0.475537 -4.358341
-0.939428 -0.691739 -4.516316
-0.93201 -0.65634 -4.480654
-0.904836 -0.454647 -4.350016
-0.898038 -0.422386 -4.317332
-0.936554 -0.634158 -4.502501
-0.913471 -0.592855 -4.391528
-0.897905 -0.234856 -4.316692
-0.906362 -0.215233 -4.35735
-0.895312 -0.388751 -4.304227
-0.885827 -0.365071 -4.258626
-0.899504 -0.183809 -4.324379
-0.887819 -0.160925 -4.268205
-0.902949 -0.34403 -4.34094
-0.880441 -0.308058 -4.232733
-0.909806 -0.134773 -4.373909
-0.909427 -0.112809 -4.372086
-0.89203 -0.289728 -4.288446
-0.883527 -0.259474 -4.247571
-0.933774 0.081939 -4.489135
-0.972038 0.111641 -4.673088
-0.903365 -0.076693 -4.342941
-0.908893 -0.054355 -4.369517
-0.904952 -0.026868 -4.350572
-0.921002 -0.003308 -4.42773
-0.938909 -0.567214 -4.446517
-0.911587 -0.52816 -4.317123
-0.948526 0.026673 -4.492062
-0.956238 0.053382 -4.528583
-0.918654 -0.505895 -4.350593
-0.915728 -0.473478 -4.336733
-0.951998 -0.690979 -4.508502
-0.940547 -0.652889 -4.454274
-0.918082 -0.454711 -4.347882
-0.912569 -0.423088 -4.321774
-0.95022 -0.634218 -4.500082
-0.928242 -0.593834 -4.395999
-0.907291 -0.23392 -4.29678
-0.920572 -0.215484 -4.359677
-0.90885 -0.388991 -4.30416
-0.901138 -0.366075 -4.267639
-0.916968 -0.184701 -4.342605
-0.904428 -0.161593 -4.28322
-0.917623 -0.344626 -4.345707
-0.894483 -0.3085 -4.23612
-0.927921 -0.135493 -4.394476
-0.919454 -0.112423 -4.354379
-0.904518 -0.289587 -4.283645
-0.902136 -0.261154 -4.272365
-0.944671 0.081711 -4.473806
-0.994573 0.112597 -4.710129
-0.920494 -0.077031 -4.359305
-0.922965 -0.054407 -4.371006
-0.924746 -0.027063 -4.379441
-0.936448 -0.003316 -4.434861
-0.954 -0.568219 -4.451532
-0.924469 -0.528084 -4.313735
-0.970117 0.026896 -4.526735
-0.971541 0.053472 -4.533379
-0.931114 -0.505539 -4.344742
-0.933772 -0.476012 -4.357143
-0.972275 -0.695763 -4.536805
-0.956164 -0.654386 -4.461627
-0.926329 -0.452338 -4.322414
-0.925125 -0.422871 -4.316793
-0.975059 -0.641636 -4.549793
-0.944132 -0.595497 -4.405484
-0.923066 -0.234637 -4.307189
-0.937175 -0.216283 -4.373024
-0.922172 -0.389137 -4.303016
-0.915673 -0.366743 -4.272691
-0.933488 -0.185382 -4.355819
-0.914918 -0.161166 -4.269167
-0.923193 -0.341838 -4.307781
-0.909534 -0.309275 -4.244042
-0.941566 -0.13555 -4.393513
-0.933102 -0.112486 -4.354016
-0.916994 -0.289449 -4.278852
-0.909906 -0.259696 -4.24578
-0.959689 0.081841 -4.478074
-1.008586 0.112576 -4.706239
-0.934128 -0.077071 -4.358806
-0.938677 -0.054555 -4.380031
-0.934962 -0.026977 -4.362695
-0.947274 -0.003307 -4.420146
-0.970655 -0.570118 -4.463503
-0.944665 -0.532134 -4.343987
-0.980385 0.026804 -4.508245
-0.98696 0.053567 -4.538477
-0.945755 -0.506365 -4.349002
-0.950156 -0.477644 -4.369239
-0.988588 -0.697622 -4.545965
-0.970363 -0.65489 -4.462159
-0.944575 -0.454848 -4.343573
-0.941444 -0.42436 -4.329175
-0.983051 -0.63792 -4.520502
-0.957059 -0.595276 -4.400981
-0.935437 -0.234483 -4.301553
-0.948727 -0.215911 -4.362665
-0.936806 -0.389828 -4.307847
-0.928992 -0.366916 -4.271917
-0.947617 -0.185577 -4.357564
-0.929898 -0.161532 -4.276083
-0.943081 -0.344357 -4.336703
-0.916638 -0.307366 -4.215106
-0.954418 -0.135494 -4.388838
-0.946539 -0.112523 -4.352608
-0.934128 -0.290766 -4.295533
-0.925951 -0.260608 -4.257933
-0.972431 0.081778 -4.471668
-1.029998 0.113371 -4.736387
-0.950411 -0.077327 -4.370411
-0.952227 -0.054574 -4.378762
-0.947402 -0.026957 -4.356575
-0.96366 -0.003317 -4.431337
-0.983605 -0.569823 -4.458252
-0.955942 -0.531123 -4.332867
-0.999373 0.026949 -4.529721
-0.998596 0.053458 -4.526199
-0.961129 -0.507559 -4.356381
-0.964824 -0.478386 -4.37313
-1.005041 -0.699534 -4.555412
-0.986476 -0.656661 -4.471269
-0.959638 -0.455783 -4.349621
-0.953766 -0.424036 -4.323007
-0.997461 -0.63842 -4.521057
-0.975121 -0.598216 -4.419801
-0.947195 -0.234184 -4.293223
-0.963786 -0.216339 -4.368423
-0.949869 -0.389859 -4.305344
-0.940426 -0.366352 -4.262541
-0.959494 -0.185333 -4.348971
-0.948586 -0.162525 -4.29953
-0.958933 -0.345357 -4.346425
-0.934578 -0.309097 -4.236035
-0.967111 -0.135418 -4.383493
-0.961618 -0.112752 -4.358598
-0.949583 -0.291535 -4.304049
-0.938225 -0.260452 -4.252565
-0.992622 0.082334 -4.499123
-0.963936 -0.077355 -4.369102
-0.966329 -0.054625 -4.379949
-0.963901 -0.027051 -4.368944
-0.982152 -0.003335 -4.451666
-1.001792 -0.572536 -4.476476
-0.974519 -0.534145 -4.354608
-1.012276 0.026929 -4.523324
-1.016579 0.053687 -4.542552
-0.978356 -0.509691 -4.371753
-0.976851 -0.47782 -4.365029
-1.024517 -0.703477 -4.578022
-1.007601 -0.661681 -4.502432
-0.972041 -0.45545 -4.343534
-0.969411 -0.425182 -4.331783
-1.016984 -0.642142 -4.544363
-0.988923 -0.598505 -4.41897
-0.966322 -0.235692 -4.31798
-0.978422 -0.216663 -4.372046
-0.966838 -0.391474 -4.320287
-0.953724 -0.366524 -4.261686
-0.973523 -0.185508 -4.350157
-0.956493 -0.161671 -4.27406
-0.97394 -0.346033 -4.35202
-0.949037 -0.309648 -4.240743
-0.983393 -0.135842 -4.394259
-0.978694 -0.113207 -4.373262
-0.960833 -0.291012 -4.293452
-0.952774 -0.260925 -4.257442
-1.007873 0.082472 -4.503649
-0.974719 -0.077166 -4.355504
-0.976984 -0.054483 -4.365623
-0.974088 -0.026969 -4.352682
-0.992357 -0.003324 -4.434318
-1.01182 -0.57058 -4.458152
-0.986171 -0.533347 -4.345143
-1.028424 0.026995 -4.531311
-1.031889 0.053771 -4.546576
-0.991623 -0.509736 -4.369163
-0.986814 -0.476276 -4.347974
-1.020104 -0.660987 -4.494654
-0.990693 -0.458019 -4.365065
-0.982838 -0.42534 -4.330458
-1.031911 -0.642905 -4.546677
-1.00646 -0.601021 -4.434535
-0.976798 -0.23508 -4.303843
-0.992561 -0.216873 -4.373296
-0.97631 -0.390054 -4.301692
-0.969632 -0.367684 -4.272267
-0.987795 -0.185725 -4.352298
-0.972447 -0.162183 -4.284673
-0.985421 -0.345458 -4.341839
-0.964917 -0.310644 -4.251495
-0.996788 -0.135862 -4.39192
-0.992388 -0.113265 -4.372532
-0.978562 -0.292442 -4.311615
-0.971043 -0.262393 -4.278485
-1.024349 0.082706 -4.513355
-0.990209 -0.07735 -4.362934
-0.994932 -0.054746 -4.383741
-0.99224 -0.027106 -4.371883
-1.008259 -0.003332 -4.442462
-1.030366 -0.573422 -4.477264
-0.999203 -0.53331 -4.341849
-1.043027 0.02702 -4.532279
-1.051139 0.054056 -4.567527
-1.005371 -0.510028 -4.368652
-1.00664 -0.479476 -4.374168
-1.039931 -0.665 -4.518826
-1.007706 -0.459777 -4.378798
-0.994582 -0.42478 -4.32177
-1.046975 -0.643739 -4.549434
-1.021954 -0.602273 -4.440712
-0.993546 -0.235976 -4.317266
-1.002008 -0.216067 -4.35404
-0.993724 -0.391807 -4.318043
-0.984271 -0.368342 -4.276966
-1.003397 -0.186185 -4.360072
-0.982279 -0.161675 -4.26831
-1.006058 -0.348069 -4.371638
-0.974966 -0.309764 -4.236534
-1.011877 -0.136111 -4.396923
-1.004828 -0.113182 -4.366292
-0.991845 -0.292526 -4.309876
-0.981156 -0.261651 -4.263432
-1.047083 0.083433 -4.549905
-1.004498 -0.077437 -4.36486
-1.008243 -0.054752 -4.381131
-1.009898 -0.027227 -4.388325
-1.020975 -0.00333 -4.436456
-1.049304 -0.576409 -4.497448
-1.017332 -0.535965 -4.360415
-1.05813 0.027057 -4.535279
-1.062091 0.053913 -4.552257
-1.018923 -0.510218 -4.367232
-1.018051 -0.47864 -4.363492
-1.058284 -0.667985 -4.535938
-1.017946 -0.458443 -4.363045
-1.0101 -0.425829 -4.329416
-1.063483 -0.645433 -4.55822
-1.03971 -0.604814 -4.456328
-1.006705 -0.236009 -4.314864
-1.016476 -0.216352 -4.356742
-1.007141 -0.391962 -4.316733
-0.993784 -0.367093 -4.259482
-1.015593 -0.186012 -4.35296
-1.001588 -0.162721 -4.29293
-1.017455 -0.34746 -4.360941
-0.988816 -0.310102 -4.238191
-1.027201 -0.136385 -4.402714
-1.021854 -0.113611 -4.379796
-1.007297 -0.293241 -4.3174
-0.995569 -0.262061 -4.267136
-1.072593 0.084361 -4.59727
-1.018251 -0.077483 -4.364352
-1.023904 -0.054883 -4.388581
-1.021672 -0.027188 -4.379016
-1.040537 -0.00335 -4.459874
-1.059583 -0.574631 -4.480399
-1.035751 -0.538707 -4.379624
-1.078457 0.027225 -4.560206
-1.084832 0.054365 -4.587161
-1.037336 -0.512812 -4.386325
-1.039044 -0.482279 -4.393549
-1.07788 -0.671675 -4.557764
-1.032906 -0.459246 -4.367593
-1.027368 -0.427584 -4.344179
-1.086394 -0.650927 -4.593767
-1.055548 -0.606194 -4.463336
-1.023502 -0.236886 -4.327831
-1.032841 -0.217031 -4.367319
-1.023387 -0.393203 -4.327344
-1.01378 -0.369702 -4.286719
-1.03161 -0.186535 -4.362113
-1.013891 -0.162619 -4.28719
-1.030344 -0.347373 -4.356763
-1.00515 -0.311203 -4.250228
-1.041344 -0.136499 -4.403272
-1.037459 -0.113875 -4.386848
-1.020392 -0.293264 -4.314678
-1.013306 -0.263327 -4.284717
-1.032375 -0.077555 -4.36535
-1.036916 -0.054872 -4.384552
-1.042089 -0.027378 -4.406426
-1.054605 -0.003352 -4.459346
-1.077781 -0.577143 -4.49675
-1.048779 -0.538617 -4.375747
-1.093663 0.027261 -4.56301
-1.107758 0.054815 -4.62182
-1.053807 -0.514397 -4.396725
-1.051497 -0.481915 -4.387084
-1.048817 -0.46045 -4.375904
-1.043729 -0.428925 -4.354677
-1.103048 -0.652586 -4.602167
-1.069103 -0.60625 -4.460543
-1.033383 -0.236162 -4.31151
-1.051057 -0.218078 -4.38525
-1.033498 -0.39209 -4.311988
-1.024357 -0.368857 -4.27385
-1.044313 -0.186455 -4.357114
-1.032665 -0.163545 -4.308515
-1.041757 -0.3468 -4.346449
-1.020109 -0.311859 -4.256126
-1.054255 -0.136452 -4.398594
-1.05251 -0.114072 -4.39131
-1.033102 -0.29318 -4.310337
-1.025793 -0.263216 -4.279842
-1.046545 -0.07763 -4.366423
-1.054647 -0.055107 -4.400228
-1.054844 -0.027364 -4.401051
-1.075574 -0.003376 -4.487539
-1.094876 -0.579013 -4.508044
-1.062696 -0.538984 -4.375544
-1.11208 0.027376 -4.578881
-1.136481 0.055538 -4.679347
-1.066305 -0.514032 -4.390404
-1.067008 -0.482949 -4.393299
-1.065781 -0.462085 -4.388248
-1.057335 -0.429118 -4.353472
-1.121168 -0.655066 -4.616297
-1.09017 -0.610517 -4.488669
-1.05342 -0.237751 -4.337353
-1.065072 -0.218241 -4.385329
-1.053246 -0.394618 -4.336637
-1.043534 -0.371095 -4.296649
-1.059713 -0.186854 -4.363262
-1.04405 -0.163294 -4.29877
-1.059888 -0.348453 -4.363984
-1.039824 -0.313937 -4.281374
-1.069299 -0.13668 -4.402735
-1.068694 -0.114388 -4.400242
-1.051982 -0.294829 -4.33143
-1.040553 -0.263687 -4.284376
-1.068483 -0.078273 -4.399374
-1.075061 -0.055476 -4.426457
-1.0727 -0.027481 -4.416734
-1.088983 -0.003375 -4.48378
-1.114571 -0.582202 -4.529527
-1.083116 -0.542606 -4.401696
-1.13313 0.027552 -4.60495
-1.085138 -0.516697 -4.409914
-1.080142 -0.482899 -4.389608
-1.079185 -0.46216 -4.385721
-1.07345 -0.430317 -4.362414
-1.150888 -0.664186 -4.677116
-1.104181 -0.610781 -4.487303
-1.068391 -0.238173 -4.341854
-1.078516 -0.218286 -4.383001
-1.066929 -0.394843 -4.335915
-1.058239 -0.37171 -4.300599
-1.080905 -0.188254 -4.39271
-1.060159 -0.16378 -4.308402
-1.074493 -0.348923 -4.366653
-1.04848 -0.312669 -4.260939
-1.087741 -0.137332 -4.420491
-1.085553 -0.114767 -4.411599
-1.066562 -0.29525 -4.334423
-1.052234 -0.263378 -4.276196
-1.08499 -0.078507 -4.409312
-1.088279 -0.05547 -4.422678
-1.086705 -0.027499 -4.416283
-1.10587 -0.003386 -4.494166
-1.129197 -0.582703 -4.530039
-1.095742 -0.542287 -4.395828
-1.159085 0.027842 -4.649941
-1.099112 -0.517016 -4.409349
-1.101793 -0.486617 -4.420103
-1.100701 -0.465669 -4.415722
-1.094061 -0.433271 -4.389083
-1.12549 -0.615033 -4.515169
-1.078744 -0.237571 -4.327635
-1.095828 -0.219106 -4.396172
-1.080103 -0.394881 -4.33309
-1.0731 -0.372368 -4.304994
-1.098505 -0.189003 -4.40691
-1.076979 -0.164365 -4.320555
-1.092834 -0.350584 -4.38416
-1.063622 -0.313346 -4.26697
-1.10436 -0.137743 -4.430402
-1.103828 -0.115287 -4.428267
-1.087024 -0.297272 -4.360853
-1.06962 -0.264489 -4.291035
-1.095368 -0.078299 -4.394328
-1.104297 -0.055605 -4.430146
-1.107215 -0.027679 -4.441856
-1.123371 -0.003398 -4.50667
-1.153343 -0.588051 -4.568159
-1.113661 -0.544569 -4.410985
-1.116859 -0.519086 -4.423651
-1.114652 -0.486413 -4.41491
-1.117375 -0.467074 -4.425695
-1.108383 -0.433698 -4.390081
-1.149459 -0.620625 -4.552773
-1.099866 -0.239328 -4.356345
-1.11512 -0.220299 -4.416764
-1.099561 -0.397191 -4.355138
-1.090448 -0.373866 -4.319044
-1.111479 -0.188951 -4.402344
-1.092666 -0.164766 -4.327827
-1.108673 -0.351415 -4.391227
-1.084068 -0.315553 -4.293772
-1.11721 -0.137681 -4.42504
-1.116269 -0.115193 -4.421317
-1.095877 -0.296112 -4.340548
-1.088375 -0.265911 -4.310833
-1.113821 -0.078667 -4.411619
-1.119555 -0.055699 -4.43433
-1.128491 -0.027873 -4.469723
-1.145676 -0.003424 -4.537792
-1.171425 -0.590222 -4.581515
-1.136055 -0.548964 -4.443178
-1.135192 -0.521381 -4.439805
-1.135659 -0.489732 -4.441629
-1.125318 -0.464844 -4.401187
-1.119724 -0.432965 -4.379308
-1.114715 -0.239697 -4.359717
-1.129972 -0.220598 -4.419388
-1.114614 -0.397877 -4.359324
-1.109851 -0.376028 -4.340694
-1.127724 -0.18945 -4.410595
-1.110337 -0.165455 -4.342595
-1.1228 -0.351693 -4.391339
-1.094882 -0.31494 -4.282151
-1.137148 -0.138484 -4.447453
-1.129492 -0.115182 -4.417512
-1.110678 -0.29657 -4.343928
-1.100085 -0.2656 -4.302497
-1.132627 -0.079051 -4.429771
-1.144055 -0.056247 -4.474466
-1.145833 -0.027968 -4.48142
-1.170818 -0.003457 -4.579142
-1.196629 -0.595895 -4.621964
-1.149267 -0.548877 -4.439029
-1.154707 -0.524164 -4.460039
-1.153467 -0.491615 -4.45525
-1.147524 -0.468493 -4.432296
-1.136235 -0.43423 -4.388694
-1.130069 -0.240167 -4.364878
-1.144877 -0.220904 -4.422072
-1.133257 -0.399818 -4.37719
-1.12753 -0.377566 -4.355068
-1.144769 -0.190072 -4.421656
-1.12729 -0.166024 -4.354142
-1.141016 -0.353234 -4.40716
-1.117795 -0.317784 -4.317466
-1.152144 -0.138675 -4.450143
-1.149633 -0.11587 -4.440441
-1.128363 -0.297781 -4.35829
-1.120046 -0.267268 -4.326165
-1.154741 -0.079655 -4.460172
-1.158327 -0.056285 -4.474023
-1.165013 -0.028105 -4.499849
-1.201989 -0.003508 -4.642668
-1.178113 -0.556177 -4.494535
-1.174689 -0.527096 -4.481471
-1.167728 -0.491965 -4.454917
-1.166075 -0.470587 -4.44861
-1.160002 -0.43821 -4.425442
-1.148379 -0.241249 -4.3811
-1.167561 -0.222687 -4.454278
-1.147502 -0.400184 -4.377754
-1.140595 -0.377545 -4.351402
-1.166999 -0.191533 -4.452137
-1.139645 -0.165912 -4.347778
-1.158905 -0.354642 -4.421256
-1.130486 -0.317692 -4.312837
-1.1695 -0.139144 -4.461676
-1.174116 -0.116976 -4.479286
-1.143776 -0.298374 -4.363539
-1.138337 -0.268506 -4.342787
-1.172933 -0.079979 -4.474774
-1.182227 -0.056785 -4.510232
-1.200457 -0.028626 -4.579776
-1.208949 -0.564244 -4.556104
-1.19578 -0.530459 -4.506476
-1.187058 -0.494422 -4.473606
-1.182144 -0.471647 -4.455087
-1.172678 -0.437961 -4.419415
-1.171584 -0.243325 -4.41529
-1.185963 -0.223625 -4.46948
-1.164804 -0.401599 -4.389739
-1.159323 -0.37938 -4.369081
-1.178768 -0.191265 -4.442363
-1.162472 -0.16731 -4.38095
-1.176692 -0.355991 -4.43454
-1.152059 -0.320074 -4.341709
-1.189386 -0.139901 -4.482381
-1.19183 -0.11739 -4.491589
-1.168548 -0.301371 -4.40385
-1.156093 -0.269594 -4.356909
-1.197156 -0.080702 -4.511662
-1.207058 -0.057318 -4.54898
-1.220038 -0.53514 -4.542584
-1.211783 -0.49905 -4.51185
-1.201727 -0.474074 -4.474408
-1.192303 -0.440288 -4.439318
-1.188359 -0.244036 -4.424634
-1.20068 -0.223857 -4.47051
-1.187419 -0.404796 -4.421133
-1.175526 -0.380361 -4.376854
-1.202641 -0.192946 -4.477809
-1.182565 -0.16829 -4.403061
-1.193755 -0.357096 -4.444726
-1.165886 -0.320276 -4.340958
-1.213597 -0.141145 -4.518603
-1.209684 -0.11781 -4.504035
-1.178224 -0.300452 -4.386898
-1.170577 -0.269905 -4.358424
-1.214729 -0.080967 -4.522819
-1.241287 -0.058282 -4.621703
-1.233562 -0.50238 -4.538258
-1.226656 -0.478537 -4.512852
-1.215175 -0.443753 -4.470614
-1.202851 -0.24427 -4.425274
-1.222197 -0.225339 -4.49645
-1.204232 -0.405972 -4.430356
-1.197181 -0.383069 -4.404415
-1.218091 -0.193256 -4.481343
-1.199542 -0.168812 -4.4131
-1.216065 -0.359732 -4.473889
-1.185763 -0.322121 -4.36241
-1.240121 -0.142629 -4.562391
-1.232297 -0.11868 -4.533605
-1.195549 -0.301486 -4.39841
-1.192878 -0.271994 -4.388585
-1.255711 -0.08277 -4.619746
-1.254037 -0.483852 -4.559217
-1.239977 -0.447844 -4.508101
-1.223312 -0.2457 -4.447511
-1.245174 -0.227057 -4.526993
-1.229446 -0.409925 -4.469814
-1.217084 -0.385165 -4.42487
-1.241274 -0.194773 -4.512815
-1.223289 -0.170265 -4.447431
-1.232023 -0.360455 -4.479182
-1.205103 -0.323784 -4.381311
-1.255286 -0.142789 -4.563759
-1.268394 -0.120817 -4.611414
-1.223208 -0.305077 -4.447133
-1.212654 -0.27347 -4.408762
-1.267589 -0.452852 -4.55472
-1.245902 -0.247525 -4.476796
-1.264503 -0.228082 -4.543632
-1.252053 -0.412937 -4.498895
-1.240103 -0.388195 -4.455957
-1.266627 -0.196597 -4.551266
-1.245555 -0.171485 -4.475549
-1.258006 -0.364066 -4.520286
-1.227502 -0.326226 -4.410681
-1.303001 -0.14661 -4.681963
-1.24106 -0.306174 -4.459398
-1.233842 -0.275231 -4.433462
-1.268987 -0.249409 -4.507075
-1.289261 -0.230056 -4.57908
-1.29181 -0.421483 -4.588133
-1.26788 -0.392637 -4.50314
-1.298285 -0.199351 -4.611133
-1.282678 -0.367228 -4.5557
-1.250884 -0.328878 -4.442777
-1.269264 -0.309776 -4.508057
-1.256572 -0.277298 -4.46298
-1.318878 -0.256469 -4.630692
-1.331802 -0.377253 -4.676071
-1.292146 -0.336127 -4.536836
-1.306912 -0.315586 -4.588679
-1.296661 -0.283113 -4.552687
