-0 -0.621576 -4.980114
-0 -0.583627 -4.8757
-0 -0.562628 -4.945167
-0 -0.52846 -4.94706
-0 -0.733321 -4.890282
-0 -0.700183 -4.882267
-0 -0.50863 -4.970679
-0 -0.475774 -4.967121
-0 -0.684217 -4.961897
-0 -0.645944 -4.887196
-0 -0.439605 -4.97146
-0 -0.416528 -4.962881
-0 -0.39363 -5.073096
-0 -0.357125 -5.01194
-0 -0.339548 -5.133437
-0 -0.308544 -5.15895
-0 -1.018406 -5.072876
-0 -0.94152 -4.94678
-0 -0.914574 -5.015275
-0 -0.856534 -4.940686
-0 -0.8047 -4.871455
-0 -0.757159 -4.841261
-0 -1.106711 -5.220387
-0.015066 -0.623526 -4.995716
-0.014725 -0.584453 -4.882576
-0.014891 -0.561777 -4.937667
-0.014955 -0.529728 -4.958906
-0.014737 -0.732768 -4.88657
-0.014799 -0.703748 -4.907106
-0.015017 -0.509508 -4.979243
-0.015013 -0.476816 -4.977973
-0.015074 -0.689254 -4.998402
-0.014834 -0.650121 -4.918779
-0.015125 -0.443468 -5.015123
-0.014991 -0.417199 -4.970854
-0.015346 -0.394825 -5.088476
-0.01513 -0.357476 -5.016838
-0.01546 -0.339068 -5.126154
-0.015619 -0.309742 -5.178957
-0.015361 -1.022551 -5.093502
-0.014916 -0.941368 -4.945958
-0.015108 -0.913558 -5.009677
-0.014874 -0.855011 -4.931877
-0.014697 -0.805007 -4.87329
-0.014721 -0.763425 -4.881304
-0.030146 -0.623787 -4.997732
-0.029494 -0.585305 -4.889626
-0.029747 -0.561103 -4.931675
-0.03002 -0.53166 -4.976923
-0.029515 -0.733773 -4.893209
-0.029615 -0.704143 -4.909794
-0.030119 -0.510953 -4.993292
-0.030079 -0.477651 -4.986627
-0.030087 -0.687819 -4.987925
-0.029629 -0.649246 -4.912095
-0.030204 -0.442787 -5.007361
-0.030146 -0.419463 -4.997771
-0.03088 -0.397239 -5.119507
-0.030492 -0.360211 -5.055165
-0.031032 -0.3403 -5.144714
-0.031566 -0.312993 -5.233243
-0.030785 -1.024608 -5.103679
-0.029998 -0.946562 -4.973179
-0.030265 -0.914994 -5.017487
-0.029819 -0.857036 -4.943491
-0.029605 -0.81076 -4.908051
-0.029544 -0.766041 -4.897964
-0.045491 -0.627541 -5.027697
-0.044488 -0.588579 -4.916861
-0.044711 -0.562237 -4.941534
-0.045011 -0.531424 -4.974605
-0.04427 -0.733728 -4.892798
-0.044258 -0.701519 -4.891382
-0.045173 -0.510886 -4.992527
-0.045153 -0.478014 -4.990301
-0.04528 -0.690102 -5.004371
-0.044582 -0.651257 -4.927195
-0.045404 -0.443743 -5.018053
-0.045409 -0.421226 -5.018651
-0.046456 -0.398398 -5.134335
-0.045714 -0.36002 -5.052369
-0.046743 -0.341722 -5.16609
-0.046431 -1.030232 -5.131577
-0.044976 -0.946132 -4.970808
-0.045729 -0.921674 -5.054002
-0.04469 -0.856302 -4.939145
-0.044414 -0.810886 -4.908702
-0.044218 -0.764352 -4.887058
-0.060437 -0.625296 -5.009551
-0.059268 -0.588087 -4.912595
-0.059723 -0.563259 -4.950355
-0.060228 -0.533322 -4.992212
-0.059582 -0.740627 -4.938643
-0.059217 -0.703987 -4.908439
-0.060533 -0.51346 -5.017518
-0.060348 -0.479163 -5.002136
-0.060326 -0.689569 -5.000343
-0.059423 -0.651054 -4.925502
-0.060551 -0.443839 -5.018983
-0.060513 -0.420999 -5.015797
-0.062037 -0.399018 -5.142158
-0.061435 -0.362872 -5.092221
-0.062798 -0.344324 -5.205255
-0.062257 -1.036055 -5.160417
-0.060211 -0.949972 -4.990824
-0.060969 -0.921636 -5.053635
-0.059699 -0.857921 -4.948326
-0.059579 -0.815821 -4.938421
-0.05926 -0.768278 -4.912003
-0.075935 -0.628524 -5.035206
-0.074205 -0.589056 -4.920489
-0.074989 -0.565801 -4.972497
-0.0757 -0.536275 -5.019643
-0.074536 -0.741227 -4.942443
-0.07443 -0.707884 -4.935407
-0.075629 -0.513219 -5.014959
-0.075809 -0.481551 -5.026856
-0.07578 -0.692988 -5.02493
-0.074328 -0.651496 -4.928645
-0.075961 -0.445449 -5.036977
-0.075685 -0.421255 -5.018642
-0.077493 -0.398752 -5.138517
-0.076886 -0.36332 -5.0983
-0.079183 -0.347339 -5.250621
-0.078349 -1.043108 -5.195331
-0.075271 -0.950086 -4.99122
-0.076586 -0.926187 -5.078382
-0.075048 -0.862822 -4.976388
-0.074128 -0.812059 -4.915443
-0.074105 -0.768602 -4.91387
-0.091391 -0.630394 -5.049933
-0.089236 -0.59032 -4.930804
-0.090168 -0.566949 -4.982332
-0.090702 -0.535468 -5.011841
-0.089697 -0.74334 -4.956285
-0.089766 -0.711464 -4.96012
-0.091023 -0.514743 -5.0296
-0.091336 -0.48349 -5.046853
-0.090989 -0.693402 -5.027681
-0.089408 -0.653071 -4.940316
-0.091432 -0.446815 -5.052176
-0.090978 -0.421987 -5.02711
-0.093441 -0.400684 -5.163157
-0.093 -0.366224 -5.138792
-0.091092 -0.958158 -5.033371
-0.092187 -0.929064 -5.093897
-0.090483 -0.866913 -4.999732
-0.089839 -0.820145 -4.964141
-0.088799 -0.76752 -4.90671
-0.106788 -0.631379 -5.05753
-0.104511 -0.592613 -4.949659
-0.105535 -0.568787 -4.998189
-0.106567 -0.539263 -5.047064
-0.104365 -0.741357 -4.942769
-0.104714 -0.711391 -4.959313
-0.106516 -0.516313 -5.044644
-0.106605 -0.48371 -5.048852
-0.106438 -0.695272 -5.040946
-0.104695 -0.655499 -4.958385
-0.107402 -0.449886 -5.086596
-0.106711 -0.424257 -5.053846
-0.109928 -0.404049 -5.206207
-0.109505 -0.369623 -5.186181
-0.106474 -0.95998 -5.042647
-0.108065 -0.933513 -5.117989
-0.105796 -0.868837 -5.010536
-0.10481 -0.820141 -4.963823
-0.104478 -0.774043 -4.948118
-0.122105 -0.631716 -5.059881
-0.119667 -0.593754 -4.958854
-0.120886 -0.570098 -5.009365
-0.121964 -0.540042 -5.054013
-0.120063 -0.746282 -4.975268
-0.120099 -0.713938 -4.97673
-0.122627 -0.520121 -5.081501
-0.121762 -0.483439 -5.045679
-0.122357 -0.699368 -5.070298
-0.119664 -0.655588 -4.958719
-0.123 -0.450834 -5.096965
-0.122944 -0.42771 -5.094638
-0.126251 -0.406052 -5.231665
-0.122496 -0.966407 -5.076059
-0.123535 -0.933783 -5.119121
-0.121294 -0.871623 -5.026257
-0.12021 -0.823089 -4.981328
-0.118946 -0.771098 -4.928956
-0.138049 -0.63486 -5.08467
-0.134806 -0.594561 -4.965213
-0.136309 -0.57142 -5.020595
-0.137829 -0.542495 -5.07657
-0.135422 -0.748239 -4.98793
-0.134763 -0.712114 -4.963634
-0.138124 -0.520768 -5.087426
-0.137965 -0.486918 -5.081589
-0.137137 -0.696771 -5.051079
-0.135101 -0.657938 -4.976114
-0.139237 -0.453653 -5.128441
-0.139407 -0.431106 -5.134694
-0.144064 -0.411872 -5.306234
-0.139807 -0.980455 -5.149445
-0.14018 -0.941891 -5.163168
-0.137426 -0.87784 -5.061717
-0.135281 -0.823386 -4.982735
-0.13443 -0.774668 -4.951391
-0.153631 -0.635883 -5.092427
-0.150418 -0.597093 -4.985928
-0.152922 -0.576972 -5.068943
-0.153185 -0.542657 -5.077651
-0.150625 -0.749032 -4.992781
-0.150524 -0.715879 -4.989441
-0.154199 -0.523254 -5.111274
-0.15466 -0.491267 -5.126539
-0.153283 -0.700946 -5.080901
-0.150741 -0.660708 -4.996627
-0.155351 -0.455551 -5.149449
-0.156032 -0.434278 -5.172024
-0.156746 -0.947907 -5.195699
-0.153094 -0.880159 -5.07465
-0.151433 -0.829544 -5.01957
-0.150597 -0.781069 -4.99187
-0.169945 -0.639484 -5.12077
-0.165957 -0.598908 -5.000602
-0.167584 -0.574828 -5.049625
-0.168951 -0.544115 -5.090801
-0.166675 -0.753522 -5.02223
-0.165988 -0.71768 -5.001518
-0.170217 -0.525112 -5.128937
-0.171067 -0.494 -5.154562
-0.169604 -0.705092 -5.110465
-0.166188 -0.662216 -5.007555
-0.172659 -0.46029 -5.202526
-0.174711 -0.442074 -5.264362
-0.174304 -0.958289 -5.252103
-0.168965 -0.883119 -5.091226
-0.167274 -0.833044 -5.040265
-0.165855 -0.782028 -4.997527
-0.186275 -0.642546 -5.144753
-0.182016 -0.602147 -5.027122
-0.184807 -0.5811 -5.104188
-0.185738 -0.548352 -5.129914
-0.182482 -0.756266 -5.039993
-0.182248 -0.722346 -5.033509
-0.186805 -0.528283 -5.159369
-0.187537 -0.496452 -5.179601
-0.18567 -0.707588 -5.128024
-0.182917 -0.668164 -5.052006
-0.19134 -0.467603 -5.284627
-0.186199 -0.892129 -5.142634
-0.18347 -0.837595 -5.067271
-0.181946 -0.786438 -5.025183
-0.203003 -0.646405 -5.175066
-0.198552 -0.606344 -5.061584
-0.200775 -0.582769 -5.118265
-0.202801 -0.55269 -5.1699
-0.198507 -0.759423 -5.060458
-0.198456 -0.726109 -5.059155
-0.203801 -0.532033 -5.195395
-0.206507 -0.504636 -5.264396
-0.202614 -0.712792 -5.165151
-0.19906 -0.67122 -5.074533
-0.204504 -0.904496 -5.213327
-0.20035 -0.844329 -5.107432
-0.197841 -0.789391 -5.043478
-0.219436 -0.648847 -5.193977
-0.215591 -0.611377 -5.10297
-0.217964 -0.587496 -5.159146
-0.220162 -0.55717 -5.211167
-0.215599 -0.765926 -5.10316
-0.215296 -0.731484 -5.095978
-0.222175 -0.538593 -5.25881
-0.220023 -0.718775 -5.207865
-0.216807 -0.678872 -5.13175
-0.218401 -0.854691 -5.169477
-0.215753 -0.7994 -5.106797
-0.237351 -0.655059 -5.243012
-0.232945 -0.616576 -5.145687
-0.236088 -0.593948 -5.215116
-0.24142 -0.57026 -5.332896
-0.233093 -0.772902 -5.148963
-0.232935 -0.738685 -5.145465
-0.237349 -0.723717 -5.242981
-0.232952 -0.680826 -5.145842
-0.232675 -0.804661 -5.139729
-0.257228 -0.665582 -5.326488
-0.25456 -0.631708 -5.271224
-0.252697 -0.751308 -5.232659
-0.256023 -0.731902 -5.301528
-0.251696 -0.689667 -5.211935
0.634035 -0.668662 -5.319717
0.615744 -0.746153 -5.166245
0.627047 -0.730608 -5.261084
0.61724 -0.68933 -5.178799
0.604838 -0.654432 -5.208357
0.595537 -0.617985 -5.128263
0.602395 -0.594145 -5.187325
0.595936 -0.774695 -5.131703
0.593519 -0.737895 -5.110884
0.605625 -0.72397 -5.215134
0.59511 -0.681871 -5.124585
0.598477 -0.811421 -5.15358
0.585666 -0.650588 -5.179554
0.573955 -0.611473 -5.075976
0.579514 -0.586819 -5.125139
0.586263 -0.557389 -5.184828
0.57401 -0.766091 -5.076467
0.575258 -0.734266 -5.087504
0.590692 -0.537957 -5.224
0.58514 -0.718136 -5.1749
0.573954 -0.675169 -5.075971
0.582668 -0.856638 -5.153039
0.575518 -0.801103 -5.089805
0.566961 -0.647072 -5.153294
0.554927 -0.607405 -5.043908
0.561511 -0.584174 -5.103749
0.565551 -0.552435 -5.140478
0.555016 -0.761045 -5.044722
0.555476 -0.728449 -5.048901
0.569604 -0.53297 -5.177315
0.577093 -0.505459 -5.245381
0.566353 -0.71413 -5.147762
0.553678 -0.66917 -5.032561
0.570623 -0.904588 -5.186574
0.558877 -0.844182 -5.079814
0.554383 -0.792834 -5.038965
0.547904 -0.64295 -5.12214
0.533275 -0.600161 -4.985385
0.542127 -0.579908 -5.068137
0.546623 -0.548998 -5.110167
0.536523 -0.756425 -5.015743
0.535961 -0.722672 -5.010496
0.550932 -0.530032 -5.150455
0.55352 -0.498479 -5.174643
0.548592 -0.711236 -5.128579
0.538863 -0.669624 -5.037622
0.547313 -0.892095 -5.116617
0.540506 -0.839448 -5.052981
0.536148 -0.788371 -5.012238
0.529983 -0.639966 -5.099993
0.51977 -0.601936 -5.001716
0.524053 -0.57684 -5.04293
0.529009 -0.546724 -5.090615
0.51892 -0.752837 -4.993536
0.519493 -0.720791 -4.999044
0.530665 -0.525347 -5.10655
0.532876 -0.493812 -5.127828
0.527403 -0.703604 -5.07516
0.522489 -0.668117 -5.02788
0.536693 -0.459139 -5.16456
0.541327 -0.955045 -5.209157
0.528112 -0.885775 -5.081988
0.519863 -0.830815 -5.002605
0.516907 -0.782133 -4.974163
0.512273 -0.637073 -5.078506
0.501141 -0.597711 -4.968146
0.507074 -0.574836 -5.026964
0.511342 -0.544264 -5.069276
0.503261 -0.751945 -4.98916
0.502301 -0.717772 -4.979642
0.512404 -0.522433 -5.0798
0.514466 -0.491004 -5.100245
0.51166 -0.703008 -5.072429
0.501928 -0.661011 -4.975944
0.517822 -0.456239 -5.133518
0.519276 -0.434251 -5.147933
0.521105 -0.946852 -5.166064
0.506794 -0.875431 -5.024189
0.503426 -0.828598 -4.990801
0.50043 -0.779838 -4.9611
0.495323 -0.634983 -5.063357
0.486114 -0.597662 -4.969222
0.490075 -0.572692 -5.009712
0.492483 -0.540349 -5.03432
0.487124 -0.750271 -4.979544
0.48502 -0.714444 -4.958039
0.493377 -0.518541 -5.043461
0.49573 -0.487707 -5.067515
0.494437 -0.700285 -5.054296
0.486804 -0.660857 -4.976274
0.499446 -0.453613 -5.1055
0.498875 -0.43005 -5.099661
0.516071 -0.411285 -5.275453
0.503573 -0.984437 -5.147694
0.502994 -0.942118 -5.141774
0.490571 -0.873529 -5.014778
0.484583 -0.822169 -4.953563
0.484345 -0.778038 -4.951132
0.478496 -0.632926 -5.048422
0.469171 -0.595181 -4.950037
0.472061 -0.569191 -4.980532
0.477841 -0.540963 -5.041511
0.468349 -0.744301 -4.941359
0.467702 -0.71085 -4.934535
0.478074 -0.518442 -5.043967
0.478295 -0.485525 -5.046302
0.478757 -0.69965 -5.051178
0.468921 -0.656831 -4.947394
0.481358 -0.451093 -5.078613
0.480761 -0.42762 -5.072314
0.494507 -0.406637 -5.217348
0.482222 -0.972687 -5.087731
0.483321 -0.934069 -5.099328
0.475265 -0.873198 -5.014335
0.467943 -0.819196 -4.937082
0.467947 -0.775611 -4.937119
0.461497 -0.630506 -5.030534
0.451148 -0.59113 -4.917728
0.457542 -0.569818 -4.987422
0.460163 -0.538074 -5.015994
0.453144 -0.74381 -4.939487
0.453409 -0.71178 -4.942376
0.460849 -0.51619 -5.023469
0.460197 -0.482509 -5.016366
0.461109 -0.696009 -5.026303
0.454087 -0.65696 -4.949762
0.465758 -0.450821 -5.07698
0.462256 -0.424676 -5.03881
0.475964 -0.404255 -5.18824
0.477964 -0.372799 -5.210035
0.462003 -0.962536 -5.036052
0.466974 -0.932142 -5.090237
0.458129 -0.869383 -4.993828
0.453052 -0.819199 -4.938488
0.451286 -0.772584 -4.919235
0.444951 -0.628568 -5.016435
0.436198 -0.590972 -4.917752
0.439628 -0.566122 -4.956427
0.44443 -0.537345 -5.010565
0.438143 -0.743638 -4.939692
0.437632 -0.710369 -4.933921
0.44456 -0.514874 -5.012031
0.444836 -0.48226 -5.015142
0.444531 -0.693799 -5.011706
0.438428 -0.655871 -4.9429
0.447019 -0.447393 -5.039754
0.445974 -0.423647 -5.027974
0.457533 -0.401812 -5.158297
0.45535 -0.367236 -5.133679
0.443629 -0.955679 -5.001533
0.450148 -0.929105 -5.075033
0.442105 -0.867497 -4.984352
0.438458 -0.819764 -4.943241
0.434935 -0.769906 -4.903518
0.429365 -0.627903 -5.012449
0.421071 -0.590562 -4.915628
0.425399 -0.567085 -4.96616
0.426991 -0.534436 -4.984745
0.420598 -0.738991 -4.91011
0.420161 -0.706019 -4.905002
0.428343 -0.513557 -5.000521
0.429124 -0.481605 -5.009646
0.428885 -0.692944 -5.006847
0.421675 -0.653016 -4.922681
0.432255 -0.447848 -5.046196
0.430849 -0.423688 -5.029773
0.44041 -0.400391 -5.1414
0.43559 -0.363667 -5.085126
0.450249 -0.348945 -5.256258
0.4454 -1.047679 -5.199652
0.427748 -0.953909 -4.993581
0.434046 -0.927409 -5.067102
0.423935 -0.86113 -4.949069
0.421869 -0.816515 -4.924943
0.419266 -0.768297 -4.894557
0.412057 -0.624584 -4.987218
0.405255 -0.589123 -4.904897
0.407646 -0.563251 -4.933837
0.410359 -0.532363 -4.966672
0.404328 -0.73633 -4.893673
0.406389 -0.7078 -4.918618
0.41144 -0.511295 -4.979759
0.411754 -0.478975 -4.983556
0.412962 -0.691568 -4.998174
0.407114 -0.653476 -4.927393
0.414546 -0.445174 -5.017348
0.414354 -0.422338 -5.015025
0.423153 -0.398742 -5.121521
0.420024 -0.363469 -5.083653
0.430197 -0.345573 -5.206777
0.42657 -1.040006 -5.162879
0.410779 -0.949499 -4.97176
0.416112 -0.921539 -5.036307
0.410119 -0.863468 -4.963769
0.404359 -0.811188 -4.894054
0.402431 -0.764361 -4.870718
0.39719 -0.624862 -4.990663
0.389397 -0.587519 -4.892742
0.393747 -0.564661 -4.947395
0.395441 -0.532448 -4.968683
0.389738 -0.736653 -4.89702
0.39057 -0.706024 -4.907482
0.396656 -0.511601 -4.983954
0.395911 -0.477996 -4.974588
0.398688 -0.692963 -5.009479
0.390289 -0.650208 -4.903951
0.398537 -0.4442 -5.007587
0.396453 -0.419403 -4.981394
0.405368 -0.396457 -5.093418
0.402859 -0.361825 -5.061892
0.41204 -0.343529 -5.17725
0.407557 -1.031302 -5.12092
0.394718 -0.946944 -4.959594
0.398884 -0.916857 -5.011945
0.39429 -0.861596 -4.954218
0.390359 -0.812776 -4.904832
0.388485 -0.765833 -4.881288
0.380727 -0.622557 -4.973419
0.374239 -0.586892 -4.888666
0.37735 -0.562464 -4.929305
0.379824 -0.531568 -4.961633
0.374924 -0.736571 -4.897624
0.374473 -0.703592 -4.891726
0.381788 -0.511822 -4.987283
0.380834 -0.477905 -4.974814
0.382247 -0.690559 -4.993279
0.37524 -0.649762 -4.901742
0.379969 -0.440187 -4.963522
0.381577 -0.419569 -4.984529
0.389782 -0.39623 -5.091703
0.383673 -0.358167 -5.011901
0.394491 -0.341855 -5.153226
0.390705 -1.027605 -5.103768
0.379119 -0.94535 -4.952413
0.384668 -0.919012 -5.024908
0.37857 -0.859834 -4.945253
0.375086 -0.81174 -4.899733
0.373376 -0.765042 -4.877397
0.366123 -0.623233 -4.979944
0.358941 -0.585989 -4.882255
0.362265 -0.562127 -4.927464
0.364488 -0.531026 -4.957695
0.36061 -0.737507 -4.904957
0.359407 -0.702981 -4.888585
0.366182 -0.511034 -4.980739
0.365082 -0.476929 -4.965775
0.365683 -0.687731 -4.973956
0.359824 -0.648623 -4.894257
0.365448 -0.440729 -4.970752
0.365388 -0.418246 -4.969945
0.373541 -0.395295 -5.080838
0.368824 -0.358428 -5.016683
0.376314 -0.339478 -5.118559
0.38137 -0.311078 -5.187323
0.373037 -1.021378 -5.073987
0.363027 -0.942353 -4.937827
0.3703 -0.920971 -5.036757
0.361704 -0.85522 -4.919829
0.358036 -0.806622 -4.869945
0.358807 -0.765344 -4.880428
0.351224 -0.623449 -4.982754
0.343504 -0.58478 -4.873235
0.34703 -0.561524 -4.923255
0.348734 -0.529811 -4.947426
0.343261 -0.732059 -4.869782
0.342097 -0.69775 -4.853264
0.348422 -0.507053 -4.943008
0.350006 -0.476797 -4.965477
0.34949 -0.685397 -4.958151
0.345227 -0.648934 -4.897672
0.350666 -0.440995 -4.974842
0.350703 -0.418611 -4.975361
0.357736 -0.394766 -5.075144
0.353603 -0.358337 -5.016503
0.360588 -0.339208 -5.115594
0.364049 -0.309654 -5.164695
0.356446 -1.017705 -5.056837
0.347648 -0.94104 -4.93202
0.3548 -0.920173 -5.033489
0.347185 -0.856011 -4.925445
0.344343 -0.808962 -4.885136
0.34201 -0.760726 -4.852029
0.335009 -0.62125 -4.966215
0.328763 -0.584705 -4.873622
0.332841 -0.562641 -4.934072
0.332995 -0.528516 -4.936358
0.329542 -0.73422 -4.885178
0.328702 -0.700402 -4.872725
0.334986 -0.509293 -4.965876
0.335319 -0.47721 -4.970814
0.334537 -0.685403 -4.959225
0.330476 -0.648977 -4.899013
0.335737 -0.441095 -4.977003
0.33433 -0.416908 -4.956155
0.342409 -0.394743 -5.075908
0.33798 -0.357817 -5.010261
0.343793 -0.337867 -5.096431
0.344903 -0.306484 -5.112888
0.341089 -1.017396 -5.056354
0.332976 -0.941619 -4.936081
0.336647 -0.912124 -4.990497
0.332474 -0.856389 -4.928645
0.328535 -0.806328 -4.870243
0.327414 -0.760817 -4.853621
0.350474 -1.103933 -5.195475
0.318829 -0.618919 -4.948567
0.314515 -0.585546 -4.881609
0.315798 -0.55882 -4.901535
0.318196 -0.528666 -4.938743
0.314108 -0.73259 -4.875296
0.314535 -0.701585 -4.881919
0.319088 -0.50783 -4.952598
0.319579 -0.476097 -4.960209
0.319685 -0.685631 -4.961865
0.315317 -0.648192 -4.894058
0.320918 -0.441361 -4.98099
0.319024 -0.416442 -4.951592
0.326283 -0.39376 -5.064267
0.321682 -0.356502 -4.99285
0.327633 -0.337057 -5.085221
0.330184 -0.307138 -5.124814
0.325026 -1.01486 -5.044754
0.316303 -0.936336 -4.909361
0.321384 -0.911528 -4.988229
0.315386 -0.850396 -4.895129
0.313483 -0.805399 -4.865597
0.310865 -0.756173 -4.824955
0.331668 -1.093595 -5.147845
0.303923 -0.618958 -4.949815
0.296573 -0.579261 -4.830123
0.301131 -0.559035 -4.904351
0.302371 -0.527046 -4.924546
0.299212 -0.732122 -4.873106
0.298739 -0.699078 -4.8654
0.302576 -0.505201 -4.927893
0.303891 -0.47496 -4.949296
0.304476 -0.685082 -4.958829
0.299577 -0.64608 -4.879039
0.324833 -0.282329 -5.290366
0.30433 -0.439103 -4.956449
0.305401 -0.418238 -4.973897
0.310425 -0.393021 -5.05572
0.30688 -0.356801 -4.997976
0.311439 -0.336132 -5.072232
0.313726 -0.306161 -5.109477
0.308389 -1.010205 -5.022566
0.299431 -0.929925 -4.876672
0.30796 -0.916352 -5.015579
0.300606 -0.85035 -4.895795
0.298904 -0.805658 -4.868086
0.297391 -0.758926 -4.843443
0.314887 -1.089255 -5.128387
0.29024 -0.62163 -4.97208
0.282532 -0.580344 -4.840028
0.285207 -0.556826 -4.885858
0.287568 -0.527138 -4.926299
0.283036 -0.728317 -4.848661
0.283564 -0.697848 -4.857719
0.287943 -0.505605 -4.932726
0.28863 -0.474413 -4.944498
0.288919 -0.683662 -4.949447
0.284923 -0.646223 -4.881003
0.30653 -0.280185 -5.251144
0.29002 -0.440074 -4.968305
0.288048 -0.414853 -4.93453
0.294437 -0.392037 -5.043978
0.291754 -0.356739 -4.998023
0.295165 -0.335025 -5.056444
0.297413 -0.305236 -5.094961
0.294845 -1.015732 -5.05096
0.285555 -0.932644 -4.891814
0.289836 -0.906975 -4.965151
0.285441 -0.849169 -4.889876
0.282833 -0.801724 -4.845189
0.282507 -0.758189 -4.839612
0.298405 -1.085569 -5.111954
0.274167 -0.6192 -4.953494
0.268736 -0.582083 -4.855369
0.271097 -0.558118 -4.898035
0.273464 -0.528598 -4.940783
0.268915 -0.729686 -4.858607
0.269278 -0.698798 -4.865166
0.273145 -0.505754 -4.93502
0.273198 -0.473516 -4.935992
0.274039 -0.683785 -4.951185
0.268745 -0.642741 -4.855536
0.289546 -0.279081 -5.231344
0.274056 -0.438509 -4.951492
0.272784 -0.414276 -4.928508
0.278521 -0.391052 -5.032166
0.275052 -0.354641 -4.969475
0.280567 -0.335808 -5.069129
0.282067 -0.305259 -5.096224
0.277858 -1.009369 -5.020178
0.271264 -0.934245 -4.901052
0.274501 -0.905792 -4.959525
0.270969 -0.850036 -4.89571
0.268628 -0.802947 -4.85341
0.266669 -0.754676 -4.818016
0.282807 -1.084881 -5.109593
0.259125 -0.618958 -4.952362
0.253843 -0.581516 -4.851425
0.257028 -0.559652 -4.912296
0.257088 -0.525587 -4.913441
0.254683 -0.730898 -4.867466
0.254018 -0.697191 -4.854766
0.25858 -0.506382 -4.941954
0.257551 -0.472124 -4.922277
0.258999 -0.683506 -4.949967
0.255184 -0.645483 -4.877037
0.272733 -0.278027 -5.212434
0.259206 -0.438653 -4.953917
0.257329 -0.413329 -4.918045
0.263566 -0.391382 -5.037232
0.258266 -0.352191 -4.935948
0.264276 -0.33454 -5.050816
0.265687 -0.304105 -5.077776
0.262923 -1.010165 -5.024953
0.255089 -0.92917 -4.875224
0.260243 -0.90824 -4.973735
0.255666 -0.848258 -4.886264
0.253832 -0.802451 -4.851204
0.253055 -0.757425 -4.836348
0.265067 -1.075436 -5.065928
0.243936 -0.618317 -4.947989
0.238702 -0.580278 -4.841839
0.241431 -0.557846 -4.89719
0.243667 -0.52862 -4.942553
0.238944 -0.727673 -4.846734
0.239332 -0.697061 -4.854607
0.242485 -0.503909 -4.91857
0.243012 -0.472721 -4.929262
0.243834 -0.682844 -4.945932
0.239615 -0.643176 -4.860355
0.257316 -0.278356 -5.219403
0.244044 -0.438255 -4.950188
0.24247 -0.413284 -4.918265
0.24899 -0.392354 -5.050511
0.244502 -0.353815 -4.959469
0.249406 -0.335027 -5.058945
0.250505 -0.304266 -5.081243
0.247602 -1.00949 -5.022366
0.241419 -0.933167 -4.896946
0.245337 -0.90859 -4.976414
0.241017 -0.848567 -4.888792
0.23897 -0.801678 -4.847275
0.238164 -0.756458 -4.830916
0.250198 -1.077199 -5.075014
0.227928 -0.615393 -4.9253
0.223738 -0.579346 -4.834761
0.22724 -0.559273 -4.910428
0.228079 -0.527047 -4.928558
0.224411 -0.727951 -4.849283
0.224099 -0.69523 -4.842547
0.229018 -0.506938 -4.948856
0.227889 -0.472191 -4.924443
0.228584 -0.681853 -4.939466
0.225563 -0.644913 -4.87418
0.239816 -0.276331 -5.18218
0.228154 -0.436421 -4.930174
0.228475 -0.414809 -4.93712
0.233098 -0.391248 -5.037003
0.228985 -0.352955 -4.948124
0.23364 -0.334302 -5.048723
0.234424 -0.30329 -5.06567
0.232611 -1.010173 -5.026485
0.226502 -0.932564 -4.894488
0.230063 -0.90755 -4.971434
0.226192 -0.848271 -4.887788
0.223845 -0.799875 -4.837065
0.223762 -0.75703 -4.835266
0.234746 -1.076536 -5.072621
0.213621 -0.616977 -4.938645
0.20927 -0.579661 -4.838043
0.211961 -0.55804 -4.900262
0.212612 -0.52556 -4.915318
0.2096 -0.727311 -4.84567
0.209435 -0.695038 -4.841867
0.213845 -0.506353 -4.94381
0.213779 -0.473838 -4.942283
0.213383 -0.680887 -4.933132
0.209864 -0.641863 -4.851787
0.224022 -0.276129 -5.179091
0.213478 -0.43682 -4.935348
0.213217 -0.414097 -4.929307
0.217861 -0.39117 -5.036676
0.214877 -0.354303 -4.967686
0.218166 -0.333926 -5.043723
0.219135 -0.303276 -5.066119
0.21711 -1.008592 -5.019296
0.211879 -0.933177 -4.898365
0.215085 -0.907618 -4.972479
0.211881 -0.85 -4.898414
0.210145 -0.803273 -4.858272
0.208158 -0.753342 -4.812356
0.219783 -1.078189 -5.081097
0.199392 -0.619042 -4.955801
0.194933 -0.58042 -4.844988
0.196638 -0.556501 -4.887361
0.198075 -0.526324 -4.923076
0.19551 -0.729268 -4.859324
0.195495 -0.697402 -4.858943
0.197679 -0.503157 -4.913223
0.197906 -0.471534 -4.918872
0.199641 -0.684784 -4.961997
0.195774 -0.643646 -4.865877
0.208961 -0.27687 -5.193641
0.1989 -0.437494 -4.943589
0.19859 -0.414596 -4.935878
0.203039 -0.391881 -5.046463
0.199331 -0.353303 -4.954296
0.20269 -0.333491 -5.037788
0.203981 -0.303462 -5.069871
0.202032 -1.008892 -5.021425
0.196221 -0.928988 -4.876989
0.199115 -0.903206 -4.94893
0.196318 -0.846596 -4.879413
0.1935 -0.795088 -4.809377
0.194039 -0.754877 -4.822772
0.207279 -1.131004 -5.151829
0.203836 -1.074904 -5.066251
0.183914 -0.617263 -4.942139
0.179543 -0.577921 -4.824689
0.182421 -0.558106 -4.902028
0.183442 -0.526944 -4.929458
0.180266 -0.7269 -4.844109
0.179988 -0.69412 -4.836645
0.183451 -0.504784 -4.929683
0.183428 -0.472455 -4.929062
0.184067 -0.682531 -4.946248
0.181181 -0.643945 -4.868705
0.193006 -0.276454 -5.186448
0.183448 -0.436206 -4.929614
0.183005 -0.413022 -4.917707
0.186443 -0.38901 -5.010083
0.18424 -0.353019 -4.950885
0.187758 -0.333958 -5.045425
0.18853 -0.303206 -5.066181
0.186845 -1.008669 -5.020901
0.181343 -0.928131 -4.87306
0.184482 -0.904646 -4.957401
0.181214 -0.844794 -4.869592
0.179919 -0.799196 -4.834787
0.179119 -0.753305 -4.813289
0.191535 -1.129798 -5.146938
0.189301 -1.079159 -5.086899
0.168622 -0.615854 -4.931387
0.16561 -0.580086 -4.843287
0.16668 -0.554923 -4.874598
0.167683 -0.524157 -4.903913
0.165612 -0.726711 -4.843371
0.166545 -0.698923 -4.870634
0.168765 -0.505333 -4.935578
0.168457 -0.472165 -4.926561
0.168329 -0.679224 -4.922808
0.165799 -0.641247 -4.848827
0.176833 -0.275629 -5.171519
0.168389 -0.435712 -4.924559
0.168773 -0.414498 -4.935815
0.171776 -0.390019 -5.023617
0.169379 -0.35317 -4.953536
0.172683 -0.334235 -5.05016
0.173657 -0.303919 -5.078647
0.171712 -1.00873 -5.021743
0.167034 -0.930293 -4.884939
0.16952 -0.904596 -4.957662
0.166752 -0.845933 -4.876683
0.165427 -0.799635 -4.837961
0.165157 -0.755848 -4.830057
0.175606 -1.127197 -5.135641
0.173047 -1.073504 -5.060791
0.154478 -0.618778 -4.955287
0.150607 -0.57857 -4.831105
0.152836 -0.558057 -4.90261
0.153044 -0.52468 -4.909288
0.150351 -0.723569 -4.822909
0.150587 -0.693089 -4.830454
0.153205 -0.503119 -4.914438
0.153099 -0.470632 -4.911047
0.153931 -0.681215 -4.937724
0.151352 -0.642001 -4.855005
0.161379 -0.275875 -5.176657
0.154464 -0.438347 -4.954826
0.153507 -0.413476 -4.924134
0.157065 -0.391118 -5.038269
0.15477 -0.353927 -4.964653
0.156973 -0.333219 -5.0353
0.157795 -0.302873 -5.061674
0.156785 -1.010146 -5.029291
0.152681 -0.93262 -4.897641
0.154514 -0.904284 -4.956439
0.152855 -0.85045 -4.903206
0.151239 -0.801773 -4.851375
0.150841 -0.757114 -4.838628
0.160369 -1.128977 -5.14426
0.158086 -1.075565 -5.071007
0.139581 -0.61899 -4.957428
0.136341 -0.579864 -4.84234
0.13768 -0.55656 -4.889894
0.138723 -0.526519 -4.926936
0.137006 -0.729964 -4.865968
0.137025 -0.698218 -4.866637
0.138763 -0.504499 -4.928357
0.138673 -0.471943 -4.925178
0.139531 -0.683623 -4.955626
0.136913 -0.642957 -4.862669
0.145627 -0.27561 -5.172137
0.13919 -0.437309 -4.943535
0.138193 -0.412095 -4.908124
0.142124 -0.391819 -5.04775
0.139546 -0.353292 -4.956185
0.142306 -0.334439 -5.054193
0.143137 -0.304165 -5.083715
0.140907 -1.005078 -5.004507
0.13789 -0.932481 -4.897346
0.139588 -0.904426 -4.957662
0.137384 -0.846245 -4.8794
0.136818 -0.803008 -4.859287
0.135849 -0.754893 -4.824866
0.145894 -1.137078 -5.181634
0.142342 -1.072179 -5.055493
0.124552 -0.618608 -4.954767
0.12128 -0.577691 -4.824584
0.123026 -0.556988 -4.894051
0.123586 -0.525342 -4.916315
0.121712 -0.726278 -4.841785
0.121731 -0.694704 -4.842533
0.124252 -0.50594 -4.942838
0.124275 -0.473684 -4.943744
0.123762 -0.679111 -4.923314
0.122107 -0.642218 -4.857476
0.130653 -0.276937 -5.197459
0.123878 -0.435895 -4.927949
0.124011 -0.41417 -4.933235
0.125969 -0.388943 -5.011108
0.124613 -0.353334 -4.957176
0.126554 -0.333103 -5.034402
0.127233 -0.302806 -5.061412
0.126385 -1.009652 -5.027683
0.122574 -0.928359 -4.876088
0.124887 -0.906253 -4.968073
0.123513 -0.852076 -4.913414
0.121347 -0.797649 -4.827245
0.121445 -0.755815 -4.831143
0.127147 -1.072626 -5.058006
0.109631 -0.618738 -4.956165
0.10705 -0.579431 -4.839462
0.108336 -0.557354 -4.897618
0.108878 -0.525926 -4.922132
0.106508 -0.722207 -4.814987
0.107238 -0.695436 -4.847985
0.109133 -0.504963 -4.933635
0.108768 -0.471103 -4.917147
0.109331 -0.681725 -4.942612
0.107717 -0.643779 -4.869625
0.114816 -0.276548 -5.190533
0.109507 -0.437864 -4.95056
0.109155 -0.414258 -4.934631
0.111116 -0.389862 -5.0233
0.10957 -0.353039 -4.953382
0.112073 -0.335207 -5.066559
0.112363 -0.303877 -5.079667
0.110971 -1.007383 -5.016744
0.108268 -0.931805 -4.894537
0.110027 -0.90728 -4.974058
0.107934 -0.846122 -4.879431
0.107261 -0.801187 -4.848998
0.106988 -0.756623 -4.836651
0.112509 -1.078539 -5.086252
0.094622 -0.618333 -4.953228
0.092559 -0.580083 -4.845204
0.093608 -0.557606 -4.900139
0.093879 -0.525062 -4.914349
0.092891 -0.729305 -4.862612
0.092587 -0.695206 -4.846681
0.094185 -0.504596 -4.930362
0.094221 -0.472517 -4.932215
0.094558 -0.682686 -4.949893
0.092957 -0.64327 -4.866081
0.099424 -0.277279 -5.204574
0.09451 -0.437555 -4.947378
0.094134 -0.413649 -4.927688
0.096325 -0.391318 -5.042379
0.094892 -0.354013 -4.967363
0.096724 -0.334966 -5.063229
0.096711 -0.302837 -5.062593
0.096044 -1.009514 -5.027669
0.093415 -0.930885 -4.89001
0.094776 -0.904889 -4.96126
0.093444 -0.848173 -4.891563
0.092683 -0.801585 -4.85171
0.092152 -0.754585 -4.823922
0.097223 -1.079138 -5.089393
0.079875 -0.619823 -4.965425
0.078069 -0.581002 -4.853137
0.078702 -0.556711 -4.892531
0.07919 -0.525944 -4.922867
0.078021 -0.727397 -4.85015
0.078283 -0.698003 -4.866436
0.079295 -0.504468 -4.92937
0.079562 -0.473809 -4.945966
0.079746 -0.683686 -4.957401
0.078324 -0.643623 -4.869007
0.083878 -0.27778 -5.214258
0.079494 -0.437034 -4.941744
0.079441 -0.414529 -4.938425
0.080984 -0.390675 -5.034356
0.079912 -0.354019 -4.967707
0.081433 -0.334887 -5.062311
0.081818 -0.304235 -5.086236
0.081006 -1.011081 -5.035741
0.07886 -0.933177 -4.902309
0.080005 -0.907072 -4.973492
0.078828 -0.849656 -4.900377
0.078144 -0.802554 -4.857832
0.077874 -0.757226 -4.841063
0.081748 -1.077487 -5.081879
0.064719 -0.618105 -4.951876
0.063515 -0.581768 -4.859754
0.064031 -0.557454 -4.899274
0.064378 -0.526231 -4.925774
0.063507 -0.72871 -4.859118
0.063748 -0.699567 -4.877555
0.064667 -0.506343 -4.947913
0.06454 -0.47304 -4.938153
0.064695 -0.682645 -4.950072
0.063524 -0.642462 -4.860437
0.068579 -0.279526 -5.247264
0.064573 -0.436926 -4.94074
0.064551 -0.414564 -4.939063
0.066095 -0.392426 -5.057147
0.065046 -0.354657 -4.97688
0.066248 -0.335306 -5.068872
0.066419 -0.303967 -5.081985
0.065844 -1.011487 -5.03798
0.06425 -0.935742 -4.916001
0.065086 -0.908208 -4.979937
0.064123 -0.850647 -4.906306
0.063643 -0.804451 -4.869532
0.063086 -0.75498 -4.826917
0.066683 -1.081734 -5.102131
0.049989 -0.620655 -4.972483
0.048702 -0.579913 -4.844423
0.049329 -0.558291 -4.906806
0.0495 -0.526008 -4.923851
0.048837 -0.728493 -4.857842
0.04896 -0.698469 -4.870072
0.049899 -0.507921 -4.963506
0.049922 -0.475672 -4.965806
0.050031 -0.686285 -4.976642
0.048937 -0.643418 -4.867843
0.052825 -0.279906 -5.254577
0.049768 -0.437767 -4.95043
0.049636 -0.414406 -4.937351
0.050663 -0.391046 -5.03954
0.049988 -0.354321 -4.972343
0.05107 -0.336028 -5.079956
0.051251 -0.304911 -5.097947
0.050574 -1.00998 -5.03065
0.049255 -0.932553 -4.899421
0.05021 -0.910818 -4.994422
0.049129 -0.847247 -4.886866
0.048933 -0.804074 -4.867421
0.048635 -0.756644 -4.837729
0.051566 -1.087455 -5.129292
0.034938 -0.619669 -4.964706
0.034298 -0.583416 -4.873813
0.034537 -0.55839 -4.907795
0.03477 -0.527811 -4.940858
0.034309 -0.731115 -4.875453
0.034323 -0.699499 -4.877377
0.034928 -0.507886 -4.963288
0.034926 -0.475398 -4.963076
0.03501 -0.686046 -4.975037
0.034383 -0.645788 -4.885894
0.034841 -0.437799 -4.950913
0.034817 -0.415254 -4.947582
0.03563 -0.392861 -5.063057
0.035113 -0.355542 -4.989606
0.035821 -0.336696 -5.090194
0.035952 -0.305556 -5.108854
0.035468 -1.011852 -5.040104
0.034601 -0.935842 -4.916827
0.035065 -0.908678 -4.982819
0.034671 -0.85416 -4.926869
0.034199 -0.802784 -4.859733
0.034133 -0.758612 -4.850435
0.036119 -1.088117 -5.132552
0.01997 -0.619844 -4.966193
0.019562 -0.582336 -4.864867
0.019712 -0.557748 -4.902236
0.019879 -0.5281 -4.943643
0.019595 -0.730737 -4.87301
0.019579 -0.698282 -4.868973
0.019998 -0.508896 -4.973241
0.019927 -0.474672 -4.955574
0.020027 -0.686768 -4.980358
0.019679 -0.646841 -4.893949
0.02003 -0.440474 -4.981247
0.019893 -0.415207 -4.947104
0.020441 -0.394438 -5.083471
0.020111 -0.356373 -5.001345
0.020591 -0.338716 -5.120812
0.020617 -0.306647 -5.12718
0.020321 -1.014534 -5.053547
0.019766 -0.935595 -4.91561
0.02012 -0.912441 -5.003539
0.019729 -0.850589 -4.90635
0.019518 -0.801806 -4.853896
0.019507 -0.758696 -4.851054
0.02077 -1.095033 -5.165258
