-0 -0.874859 -4.357842
-0 -0.822762 -4.322819
-0 -1.245071 -4.226571
-0 -1.210299 -4.2168
-0 -1.188752 -4.288326
-0 -1.110701 -4.141127
-0 -1.121868 -4.348469
-0 -1.072363 -4.356802
-0 -1.372962 -4.330188
-0 -1.322769 -4.328147
-0 -0.813516 -4.461101
-0 -0.768393 -4.432267
-0 -0.980753 -4.171696
-0 -0.965435 -4.216528
-0 -0.741137 -4.486658
-0 -0.935199 -4.263367
-0 -0.915164 -4.316855
-0.013114 -0.872929 -4.34821
-0.013018 -0.821537 -4.316361
-0.012719 -1.242371 -4.217387
-0.012716 -1.210145 -4.216243
-0.012854 -1.181461 -4.262006
-0.012542 -1.1154 -4.158629
-0.013367 -1.453387 -4.43237
-0.01309 -1.119783 -4.340369
-0.013114 -1.070265 -4.348258
-0.013068 -1.373858 -4.332997
-0.013029 -1.320307 -4.320071
-0.013378 -0.808928 -4.435921
-0.013389 -0.769662 -4.439564
-0.012564 -0.9794 -4.165922
-0.012774 -0.969826 -4.235686
-0.013437 -0.736007 -4.455581
-0.013826 -0.717002 -4.584476
-0.012774 -0.929116 -4.235615
-0.012961 -0.911076 -4.297551
-0.026184 -0.871487 -4.340964
-0.025905 -0.817409 -4.294614
-0.025414 -1.241156 -4.213204
-0.025418 -1.209518 -4.214001
-0.025728 -1.182415 -4.265391
-0.024972 -1.110417 -4.139995
-0.026462 -1.438508 -4.386933
-0.026082 -1.115572 -4.323987
-0.02617 -1.067919 -4.338668
-0.026017 -1.367619 -4.313259
-0.025925 -1.313565 -4.297952
-0.026749 -0.808683 -4.434517
-0.026708 -0.767641 -4.42785
-0.025042 -0.976024 -4.151506
-0.025392 -0.963871 -4.20962
-0.026806 -0.734103 -4.443998
-0.027417 -0.710896 -4.545374
-0.02553 -0.928425 -4.232407
-0.02588 -0.909607 -4.290563
-0.039344 -0.872994 -4.348372
-0.038785 -0.815887 -4.286524
-0.038149 -1.242086 -4.216267
-0.038059 -1.20733 -4.206284
-0.038523 -1.180285 -4.257607
-0.037522 -1.112316 -4.146979
-0.039605 -1.435344 -4.377183
-0.038875 -1.10851 -4.296517
-0.039309 -1.069378 -4.344497
-0.038935 -1.364419 -4.303068
-0.038936 -1.315225 -4.303284
-0.039982 -0.805846 -4.418861
-0.039879 -0.764125 -4.40747
-0.037514 -0.97477 -4.14608
-0.038094 -0.96403 -4.21022
-0.040001 -0.73031 -4.420932
-0.040728 -0.704024 -4.501333
-0.038307 -0.928742 -4.233756
-0.038756 -0.908095 -4.283335
-0.052165 -0.868101 -4.323865
-0.051601 -0.814123 -4.277121
-0.050605 -1.235724 -4.194538
-0.050593 -1.203729 -4.193602
-0.051314 -1.179143 -4.253356
-0.049776 -1.106681 -4.125839
-0.052324 -1.422221 -4.337026
-0.051877 -1.109437 -4.299975
-0.052388 -1.068884 -4.34235
-0.051626 -1.35688 -4.279156
-0.051886 -1.31448 -4.300711
-0.05328 -0.805411 -4.41633
-0.052756 -0.758152 -4.372877
-0.049822 -0.970942 -4.129664
-0.050758 -0.963378 -4.207236
-0.05331 -0.729977 -4.41878
-0.054191 -0.702552 -4.491778
-0.051112 -0.929396 -4.236606
-0.051701 -0.908566 -4.285419
-0.069862 -0.69475 -4.632538
-0.064998 -0.865354 -4.310006
-0.06449 -0.813998 -4.276288
-0.063073 -1.232183 -4.182344
-0.063176 -1.202508 -4.189178
-0.064262 -1.181367 -4.261203
-0.062124 -1.105 -4.119402
-0.065359 -1.421268 -4.333943
-0.064795 -1.1086 -4.296553
-0.065289 -1.06571 -4.32928
-0.06459 -1.35813 -4.282923
-0.064408 -1.305421 -4.270897
-0.066353 -0.802443 -4.399876
-0.065861 -0.757203 -4.367224
-0.062686 -0.977342 -4.156716
-0.063317 -0.961421 -4.198518
-0.066538 -0.728905 -4.412106
-0.06758 -0.700932 -4.481239
-0.063579 -0.92489 -4.215893
-0.064468 -0.906363 -4.274853
-0.082921 -0.68719 -4.581902
-0.077939 -0.864712 -4.30659
-0.077278 -0.81286 -4.270096
-0.075732 -1.232922 -4.184644
-0.075858 -1.203262 -4.191595
-0.07651 -1.172128 -4.227665
-0.074617 -1.106029 -4.123033
-0.077894 -1.411549 -4.304092
-0.077613 -1.106595 -4.288568
-0.078253 -1.064456 -4.323969
-0.077246 -1.353565 -4.268313
-0.077347 -1.306408 -4.273912
-0.079599 -0.8022 -4.398323
-0.078914 -0.756072 -4.360484
-0.075045 -0.975028 -4.146665
-0.075715 -0.958078 -4.183712
-0.079873 -0.729164 -4.413453
-0.080899 -0.699232 -4.470144
-0.076353 -0.925612 -4.218971
-0.077181 -0.90426 -4.264719
-0.096305 -0.684104 -4.561052
-0.091435 -0.869546 -4.330412
-0.089894 -0.810497 -4.257428
-0.088146 -1.230047 -4.17464
-0.088158 -1.198622 -4.175185
-0.089666 -1.177451 -4.246612
-0.086936 -1.104558 -4.117308
-0.090743 -1.40951 -4.297619
-0.090363 -1.104352 -4.279622
-0.091307 -1.064613 -4.324354
-0.089667 -1.346785 -4.246682
-0.089876 -1.301174 -4.256538
-0.093059 -0.803883 -4.407295
-0.092128 -0.756589 -4.363204
-0.087402 -0.973379 -4.139411
-0.088516 -0.960068 -4.192154
-0.092544 -0.724164 -4.38293
-0.094079 -0.697004 -4.455637
-0.088887 -0.923636 -4.209716
-0.090053 -0.904357 -4.264923
-0.109471 -0.680442 -4.536326
-0.103786 -0.863649 -4.300748
-0.102456 -0.808308 -4.245642
-0.100724 -1.22991 -4.173889
-0.100712 -1.198185 -4.173378
-0.101855 -1.170361 -4.220754
-0.099523 -1.106455 -4.124095
-0.108033 -1.511382 -4.476746
-0.103883 -1.411957 -4.304788
-0.103802 -1.110053 -4.301422
-0.104372 -1.064853 -4.32503
-0.102901 -1.352393 -4.264076
-0.102659 -1.300499 -4.25404
-0.106057 -0.801674 -4.394884
-0.105144 -0.755569 -4.357024
-0.099444 -0.96908 -4.120845
-0.100981 -0.95839 -4.184543
-0.105484 -0.722259 -4.371102
-0.107365 -0.696025 -4.449079
-0.101803 -0.925645 -4.218584
-0.102693 -0.902415 -4.255478
-0.122418 -0.67639 -4.508968
-0.11698 -0.865302 -4.308649
-0.115461 -0.809714 -4.2527
-0.113041 -1.226967 -4.163579
-0.113408 -1.199345 -4.177095
-0.114496 -1.169451 -4.217146
-0.11104 -1.097358 -4.089874
-0.120556 -1.499219 -4.440376
-0.116287 -1.404962 -4.28313
-0.116736 -1.109691 -4.299686
-0.117114 -1.06212 -4.313596
-0.115309 -1.347118 -4.247116
-0.115442 -1.299982 -4.252019
-0.119664 -0.804038 -4.407499
-0.118228 -0.755208 -4.354608
-0.112128 -0.971293 -4.129936
-0.113804 -0.960099 -4.191679
-0.118967 -0.724091 -4.38185
-0.120104 -0.692112 -4.423724
-0.113725 -0.919172 -4.188761
-0.115485 -0.902087 -4.2536
-0.136176 -0.677181 -4.513851
-0.130184 -0.866699 -4.315232
-0.128262 -0.80956 -4.251521
-0.126004 -1.23093 -4.176668
-0.125517 -1.194691 -4.160525
-0.127334 -1.170556 -4.220765
-0.12386 -1.101676 -4.105612
-0.133606 -1.495392 -4.428658
-0.128803 -1.400595 -4.269448
-0.129191 -1.105303 -4.282313
-0.129532 -1.057294 -4.293628
-0.128014 -1.346028 -4.243313
-0.128592 -1.303285 -4.262454
-0.132171 -0.799293 -4.381112
-0.131169 -0.75411 -4.3479
-0.12434 -0.969399 -4.121529
-0.125951 -0.956346 -4.174932
-0.131627 -0.721047 -4.363054
-0.133431 -0.692038 -4.422867
-0.126671 -0.921454 -4.198797
-0.127882 -0.89905 -4.238915
-0.149617 -0.676405 -4.508243
-0.141906 -0.858881 -4.275899
-0.141106 -0.809689 -4.251793
-0.138191 -1.227295 -4.163936
-0.137851 -1.192842 -4.153691
-0.140277 -1.172346 -4.226818
-0.135848 -1.09849 -4.093349
-0.146401 -1.489688 -4.411343
-0.141873 -1.402514 -4.274889
-0.142292 -1.106753 -4.287522
-0.142089 -1.054387 -4.281413
-0.14044 -1.342474 -4.231704
-0.140317 -1.292879 -4.228017
-0.14562 -0.800587 -4.387783
-0.144258 -0.753982 -4.346745
-0.136523 -0.967646 -4.113681
-0.138644 -0.957048 -4.1776
-0.145076 -0.722498 -4.371418
-0.146168 -0.689198 -4.404296
-0.139529 -0.922741 -4.204261
-0.141107 -0.901875 -4.251825
-0.162613 -0.673922 -4.491228
-0.167974 -0.665773 -4.639295
-0.155189 -0.861034 -4.28617
-0.15392 -0.809648 -4.251132
-0.150441 -1.2248 -4.155037
-0.150393 -1.192974 -4.153715
-0.152212 -1.166128 -4.203957
-0.148418 -1.100167 -4.099166
-0.160326 -1.495492 -4.428066
-0.154261 -1.397958 -4.260555
-0.154755 -1.103428 -4.274194
-0.15659 -1.065198 -4.324857
-0.153102 -1.341608 -4.228529
-0.154147 -1.301999 -4.257395
-0.158145 -0.797028 -4.36782
-0.157737 -0.755763 -4.356559
-0.148835 -0.967039 -4.110671
-0.150778 -0.954113 -4.164349
-0.158876 -0.725317 -4.388011
-0.159653 -0.690079 -4.409463
-0.151189 -0.916567 -4.175691
-0.153581 -0.899837 -4.241775
-0.175857 -0.672769 -4.483032
-0.18001 -0.658619 -4.588923
-0.168342 -0.862194 -4.291455
-0.166405 -0.808017 -4.242085
-0.163102 -1.225776 -4.157875
-0.163191 -1.194962 -4.160163
-0.165804 -1.17259 -4.226775
-0.160716 -1.099723 -4.097045
-0.17191 -1.480245 -4.382424
-0.167231 -1.398965 -4.263139
-0.167738 -1.104039 -4.276077
-0.168467 -1.057877 -4.294647
-0.165879 -1.341803 -4.228665
-0.166213 -1.29597 -4.237202
-0.171795 -0.799248 -4.379488
-0.170532 -0.754241 -4.347293
-0.161484 -0.968552 -4.116635
-0.163281 -0.953785 -4.162446
-0.171267 -0.721765 -4.366025
-0.17238 -0.6878 -4.394403
-0.164613 -0.921216 -4.196396
-0.165637 -0.89585 -4.222502
-0.190326 -0.676142 -4.504955
-0.19333 -0.656853 -4.576051
-0.181775 -0.864532 -4.302563
-0.179197 -0.808009 -4.241523
-0.175979 -1.228135 -4.165364
-0.176266 -1.198554 -4.172157
-0.177753 -1.167345 -4.207351
-0.172546 -1.096382 -4.084098
-0.18537 -1.482193 -4.38765
-0.180093 -1.399007 -4.262744
-0.18034 -1.102241 -4.268586
-0.181376 -1.057626 -4.293098
-0.178533 -1.34106 -4.225804
-0.179309 -1.298262 -4.244173
-0.184812 -0.798423 -4.374429
-0.183665 -0.754333 -4.347285
-0.173066 -0.963915 -4.096423
-0.177397 -0.962262 -4.198923
-0.184225 -0.720948 -4.360548
-0.186156 -0.689737 -4.40624
-0.176817 -0.918869 -4.185187
-0.17935 -0.900769 -4.245162
-0.202048 -0.66996 -4.463175
-0.206332 -0.654322 -4.557822
-0.194182 -0.862004 -4.289415
-0.191902 -0.807645 -4.239055
-0.188433 -1.22743 -4.162425
-0.187747 -1.191562 -4.147268
-0.191052 -1.171089 -4.220287
-0.184852 -1.096322 -4.083335
-0.198328 -1.480147 -4.381016
-0.193101 -1.400108 -4.265535
-0.193972 -1.106568 -4.284776
-0.193893 -1.055288 -4.283044
-0.19144 -1.342206 -4.228855
-0.19159 -1.294762 -4.232172
-0.19853 -0.800543 -4.385469
-0.196141 -0.7519 -4.332692
-0.185818 -0.96598 -4.104658
-0.188905 -0.956413 -4.172851
-0.196134 -0.716412 -4.332542
-0.19896 -0.688065 -4.394978
-0.18957 -0.919509 -4.187552
-0.191821 -0.899215 -4.23728
-0.216779 -0.673917 -4.488902
-0.22219 -0.660607 -4.600949
-0.207273 -0.862654 -4.292045
-0.205048 -0.809079 -4.245982
-0.200848 -1.226598 -4.159016
-0.201148 -1.196885 -4.165209
-0.203039 -1.16684 -4.204381
-0.197182 -1.096409 -4.083085
-0.211565 -1.480327 -4.38093
-0.20562 -1.397772 -4.25782
-0.206598 -1.104992 -4.278073
-0.207802 -1.060356 -4.303006
-0.204991 -1.347455 -4.244794
-0.204192 -1.293746 -4.228255
-0.210629 -0.79629 -4.361551
-0.20957 -0.753206 -4.339606
-0.19895 -0.96966 -4.119712
-0.20146 -0.956279 -4.171677
-0.210036 -0.719279 -4.349266
-0.213213 -0.691305 -4.415048
-0.202377 -0.920325 -4.190677
-0.205287 -0.902237 -4.250924
-0.23005 -0.673137 -4.483033
-0.23455 -0.656366 -4.570728
-0.219367 -0.859325 -4.274841
-0.21797 -0.809512 -4.247613
-0.214049 -1.230382 -4.17122
-0.213247 -1.194299 -4.155585
-0.215798 -1.167271 -4.205303
-0.209997 -1.099033 -4.092241
-0.224409 -1.477903 -4.3731
-0.218105 -1.395499 -4.250256
-0.219443 -1.104706 -4.276322
-0.220049 -1.056849 -4.288128
-0.216666 -1.340487 -4.222211
-0.217218 -1.295385 -4.232976
-0.224306 -0.798152 -4.371094
-0.222415 -0.752388 -4.33424
-0.209858 -0.962702 -4.089534
-0.212975 -0.951519 -4.150289
-0.223719 -0.721103 -4.359644
-0.225209 -0.687281 -4.38869
-0.214971 -0.920133 -4.189173
-0.21771 -0.900595 -4.242547
-0.243625 -0.673288 -4.483325
-0.248731 -0.657413 -4.577289
-0.233253 -0.863003 -4.29245
-0.230926 -0.810025 -4.249629
-0.226374 -1.228997 -4.165861
-0.226148 -1.196247 -4.161701
-0.228318 -1.166439 -4.201636
-0.221705 -1.095907 -4.07995
-0.238282 -1.482162 -4.385006
-0.230577 -1.39341 -4.243219
-0.231424 -1.100353 -4.258793
-0.234446 -1.063495 -4.314409
-0.229453 -1.340799 -4.222519
-0.229853 -1.294648 -4.229894
-0.237001 -0.796515 -4.361437
-0.235024 -0.750911 -4.325046
-0.222366 -0.963462 -4.092112
-0.225908 -0.953278 -4.157299
-0.236261 -0.71926 -4.347806
-0.238413 -0.68719 -4.387407
-0.226946 -0.917471 -4.176387
-0.230882 -0.902071 -4.248827
-0.256216 -0.670857 -4.466385
-0.26366 -0.660234 -4.596153
-0.246025 -0.862401 -4.288737
-0.242476 -0.805824 -4.226879
-0.236801 -1.218018 -4.127951
-0.237307 -1.189281 -4.13677
-0.241037 -1.166679 -4.201793
-0.233612 -1.094051 -4.072356
-0.251599 -1.482717 -4.385906
-0.243795 -1.395831 -4.249873
-0.244679 -1.102215 -4.265281
-0.246474 -1.059276 -4.296568
-0.243201 -1.346419 -4.239503
-0.241999 -1.291397 -4.218562
-0.250147 -0.796494 -4.360587
-0.248685 -0.752784 -4.335104
-0.23406 -0.960811 -4.080166
-0.23878 -0.954617 -4.162438
-0.249537 -0.719736 -4.349952
-0.252119 -0.688491 -4.394974
-0.24025 -0.920191 -4.188064
-0.243257 -0.900454 -4.240491
-0.270567 -0.67305 -4.480195
-0.278911 -0.663541 -4.618353
-0.258443 -0.860683 -4.279434
-0.254644 -0.803996 -4.216538
-0.249919 -1.221287 -4.138295
-0.249734 -1.18905 -4.135233
-0.253073 -1.163755 -4.190518
-0.246821 -1.098181 -4.087003
-0.264652 -1.481744 -4.38225
-0.25712 -1.398592 -4.257524
-0.257296 -1.101162 -4.260449
-0.259439 -1.059307 -4.295933
-0.254788 -1.340118 -4.218916
-0.255463 -1.295158 -4.230094
-0.263745 -0.797848 -4.367227
-0.262183 -0.754007 -4.341373
-0.24819 -0.967931 -4.109671
-0.25208 -0.957456 -4.174076
-0.261806 -0.717409 -4.335118
-0.265286 -0.688264 -4.392747
-0.252362 -0.918308 -4.17875
-0.256655 -0.902595 -4.249824
-0.283228 -0.671036 -4.465949
-0.290841 -0.659015 -4.586001
-0.272093 -0.863044 -4.29037
-0.268079 -0.806157 -4.227085
-0.261874 -1.218843 -4.129241
-0.262898 -1.192194 -4.145391
-0.267632 -1.172172 -4.220038
-0.258404 -1.095034 -4.074531
-0.277704 -1.480872 -4.378853
-0.270853 -1.403222 -4.270821
-0.270449 -1.102404 -4.264459
-0.271554 -1.056038 -4.281877
-0.266747 -1.336288 -4.206074
-0.268146 -1.2948 -4.228137
-0.277142 -0.798502 -4.369985
-0.273492 -0.749119 -4.312428
-0.260141 -0.966285 -4.101917
-0.26389 -0.954641 -4.161025
-0.276028 -0.720409 -4.35243
-0.279683 -0.691105 -4.410058
-0.266472 -0.923533 -4.201741
-0.26884 -0.900483 -4.239085
-0.297928 -0.673824 -4.483625
-0.30641 -0.662775 -4.611262
-0.285927 -0.865757 -4.303014
-0.281334 -0.807615 -4.233898
-0.274928 -1.221516 -4.137486
-0.27593 -1.194489 -4.152559
-0.279181 -1.167251 -4.201498
-0.270681 -1.094992 -4.073574
-0.292256 -1.487728 -4.398266
-0.282782 -1.39852 -4.255678
-0.284745 -1.107988 -4.285221
-0.285004 -1.058034 -4.289127
-0.280808 -1.342875 -4.225979
-0.280384 -1.292439 -4.219601
-0.288337 -0.793047 -4.339282
-0.287112 -0.750729 -4.320849
-0.272061 -0.964688 -4.094334
-0.275386 -0.951008 -4.144379
-0.288774 -0.719461 -4.345852
-0.292552 -0.690091 -4.402722
-0.277712 -0.918797 -4.179377
-0.281659 -0.900594 -4.238778
-0.31191 -0.674823 -4.489355
-0.299264 -0.866804 -4.307334
-0.294224 -0.80795 -4.23479
-0.288121 -1.224561 -4.146951
-0.288024 -1.192719 -4.145556
-0.293285 -1.172986 -4.221275
-0.284366 -1.100412 -4.092899
-0.30396 -1.480135 -4.374921
-0.294735 -1.394358 -4.242141
-0.297607 -1.107767 -4.283488
-0.29904 -1.061946 -4.304103
-0.293391 -1.342141 -4.222802
-0.293848 -1.2957 -4.229381
-0.30277 -0.796594 -4.357797
-0.301674 -0.754562 -4.342018
-0.284562 -0.965213 -4.095722
-0.289929 -0.957767 -4.172977
-0.301707 -0.719052 -4.342494
-0.306091 -0.690683 -4.405593
-0.290857 -0.920513 -4.186324
-0.295752 -0.904605 -4.256784
-0.325356 -0.674631 -4.487116
-0.311597 -0.864982 -4.297359
-0.307374 -0.80895 -4.239123
-0.300613 -1.224506 -4.145877
-0.300639 -1.193168 -4.146228
-0.306228 -1.173802 -4.22331
-0.295115 -1.094504 -4.070054
-0.319238 -1.489864 -4.402733
-0.308759 -1.39994 -4.258214
-0.30995 -1.105718 -4.274649
-0.311923 -1.061617 -4.301852
-0.305145 -1.337841 -4.208373
-0.306805 -1.296558 -4.231274
-0.317354 -0.800232 -4.376761
-0.315382 -0.756034 -4.34956
-0.296547 -0.964022 -4.089796
-0.300352 -0.950923 -4.142272
-0.31465 -0.718705 -4.339468
-0.320375 -0.692842 -4.418424
-0.304261 -0.922878 -4.19618
-0.307703 -0.902006 -4.243647
-0.34004 -0.676924 -4.501363
-0.324409 -0.864589 -4.294447
-0.319777 -0.807987 -4.233132
-0.313851 -1.227381 -4.154684
-0.313514 -1.194582 -4.150216
-0.318802 -1.173208 -4.220229
-0.308232 -1.097505 -4.080302
-0.334213 -1.497473 -4.424232
-0.321569 -1.399803 -4.256847
-0.322353 -1.104044 -4.267224
-0.324109 -1.059045 -4.290471
-0.319348 -1.344205 -4.227448
-0.3193 -1.295479 -4.22681
-0.331002 -0.801317 -4.381721
-0.328051 -0.755004 -4.342664
-0.309915 -0.96725 -4.102573
-0.314287 -0.955312 -4.160461
-0.329109 -0.721714 -4.356662
-0.332457 -0.690263 -4.40099
-0.316898 -0.922827 -4.195013
-0.320253 -0.901312 -4.239432
-0.354168 -0.677984 -4.507366
-0.336302 -0.861878 -4.279991
-0.333464 -0.810226 -4.243875
-0.326873 -1.229235 -4.159992
-0.327667 -1.200583 -4.170094
-0.329458 -1.165878 -4.192887
-0.321805 -1.101848 -4.095495
-0.348692 -1.502371 -4.437672
-0.335173 -1.403014 -4.265619
-0.33539 -1.104601 -4.268385
-0.338668 -1.064138 -4.310102
-0.332442 -1.345603 -4.230861
-0.332248 -1.296265 -4.228392
-0.344149 -0.801161 -4.37985
-0.342057 -0.757017 -4.353228
-0.323042 -0.969519 -4.111239
-0.326649 -0.95477 -4.157137
-0.342624 -0.722508 -4.360445
-0.347144 -0.693088 -4.417978
-0.330621 -0.925831 -4.207692
-0.334106 -0.904202 -4.252038
-0.369188 -0.680618 -4.523784
-0.35179 -0.868251 -4.310594
-0.344515 -0.80614 -4.221456
-0.339768 -1.230508 -4.163293
-0.338771 -1.195394 -4.151067
-0.343766 -1.171552 -4.212274
-0.334487 -1.102943 -4.098576
-0.3635 -1.508293 -4.45409
-0.348305 -1.404101 -4.267892
-0.349357 -1.108076 -4.280781
-0.350895 -1.06181 -4.299634
-0.345884 -1.348272 -4.23823
-0.344614 -1.294824 -4.222671
-0.357838 -0.802243 -4.384702
-0.354912 -0.756438 -4.348848
-0.3363 -0.972006 -4.120791
-0.340555 -0.95863 -4.172935
-0.357634 -0.726289 -4.382203
-0.36311 -0.69817 -4.449299
-0.342983 -0.924952 -4.202682
-0.345503 -0.900491 -4.233565
-0.384161 -0.682983 -4.538366
-0.365029 -0.868823 -4.312351
-0.359965 -0.812278 -4.252529
-0.353286 -1.233868 -4.173616
-0.352282 -1.198772 -4.161756
-0.357772 -1.175837 -4.226624
-0.346328 -1.101292 -4.091417
-0.36395 -1.414887 -4.299599
-0.361754 -1.106509 -4.273656
-0.364096 -1.062496 -4.301331
-0.358117 -1.346211 -4.230689
-0.357938 -1.296962 -4.228584
-0.371562 -0.803327 -4.389527
-0.368748 -0.757921 -4.356284
-0.346891 -0.966889 -4.09807
-0.352279 -0.956294 -4.161722
-0.37034 -0.725291 -4.375088
-0.375021 -0.695379 -4.430396
-0.354488 -0.921914 -4.187828
-0.360008 -0.904858 -4.253028
-0.402363 -0.690736 -4.588688
-0.377612 -0.867855 -4.306429
-0.373643 -0.814139 -4.261165
-0.365242 -1.231745 -4.165352
-0.364446 -1.197504 -4.156271
-0.369175 -1.171573 -4.210201
-0.358821 -1.10177 -4.092129
-0.376765 -1.414321 -4.296763
-0.376674 -1.112512 -4.295725
-0.37719 -1.062841 -4.30161
-0.372517 -1.352174 -4.248323
-0.374916 -1.311748 -4.275678
-0.383736 -0.801109 -4.376269
-0.38263 -0.759401 -4.363656
-0.361328 -0.972483 -4.12071
-0.367052 -0.96212 -4.185989
-0.384243 -0.726635 -4.382051
-0.389252 -0.696937 -4.439173
-0.367941 -0.923984 -4.196138
-0.372761 -0.904684 -4.251105
-0.420875 -0.698496 -4.63899
-0.390657 -0.867987 -4.305928
-0.388015 -0.817346 -4.276799
-0.377847 -1.23189 -4.164723
-0.378905 -1.203623 -4.176386
-0.382996 -1.175027 -4.221479
-0.373495 -1.108701 -4.116762
-0.39122 -1.41976 -4.312128
-0.389202 -1.111298 -4.289883
-0.391036 -1.065224 -4.310096
-0.384941 -1.350819 -4.242925
-0.385212 -1.302966 -4.245912
-0.398566 -0.804405 -4.393095
-0.396145 -0.760085 -4.366412
-0.374611 -0.974715 -4.129056
-0.379375 -0.961363 -4.181571
-0.398089 -0.72779 -4.387836
-0.40393 -0.699174 -4.45222
-0.381018 -0.925012 -4.199677
-0.387239 -0.908577 -4.26825
-0.404119 -0.869013 -4.309817
-0.399884 -0.815251 -4.264647
-0.392718 -1.239188 -4.188229
-0.392117 -1.205523 -4.181815
-0.394911 -1.172608 -4.211614
-0.386095 -1.109233 -4.117594
-0.404795 -1.421766 -4.317019
-0.402894 -1.113388 -4.296752
-0.404995 -1.067761 -4.319158
-0.400669 -1.360778 -4.273018
-0.400328 -1.310535 -4.269388
-0.411634 -0.804055 -4.389962
-0.410232 -0.761794 -4.37501
-0.387014 -0.974593 -4.127392
-0.391896 -0.961145 -4.179457
-0.412165 -0.729283 -4.395619
-0.41822 -0.700621 -4.460193
-0.393634 -0.924898 -4.197994
-0.399571 -0.907353 -4.261313
-0.419381 -0.873733 -4.33198
-0.413296 -0.81634 -4.269121
-0.406146 -1.241629 -4.195271
-0.405425 -1.207599 -4.187814
-0.410438 -1.18074 -4.239605
-0.400118 -1.113704 -4.133003
-0.422061 -1.436223 -4.359662
-0.417224 -1.117062 -4.309692
-0.419602 -1.071803 -4.334262
-0.41242 -1.357045 -4.260073
-0.413278 -1.310774 -4.26894
-0.426563 -0.807253 -4.406158
-0.423904 -0.762655 -4.3787
-0.398821 -0.973034 -4.119604
-0.404928 -0.962162 -4.182681
-0.425641 -0.729663 -4.396643
-0.435688 -0.707142 -4.500417
-0.407711 -0.928125 -4.211428
-0.412794 -0.908172 -4.263937
-0.433865 -0.876603 -4.344923
-0.427232 -0.818374 -4.278489
-0.418001 -1.239266 -4.186049
-0.419127 -1.210701 -4.197326
-0.423986 -1.18287 -4.245991
-0.409865 -1.106371 -4.104571
-0.436069 -1.439064 -4.36699
-0.429575 -1.115387 -4.301955
-0.433232 -1.07319 -4.338585
-0.429252 -1.369765 -4.298728
-0.426098 -1.310608 -4.267135
-0.440461 -0.808375 -4.410971
-0.439609 -0.767018 -4.402443
-0.413321 -0.977948 -4.139181
-0.418251 -0.963799 -4.188553
-0.442941 -0.736382 -4.435814
-0.451607 -0.710838 -4.522599
-0.422904 -0.933629 -4.235149
-0.427378 -0.911853 -4.279952
-0.445978 -0.874665 -4.333991
-0.439832 -0.817815 -4.274257
-0.43176 -1.242537 -4.195815
-0.43089 -1.208196 -4.187361
-0.43718 -1.183927 -4.248489
-0.424203 -1.11151 -4.122377
-0.442096 -1.114251 -4.29626
-0.446522 -1.073688 -4.339272
-0.444027 -1.375381 -4.315032
-0.440664 -1.315682 -4.282343
-0.455001 -0.810584 -4.421675
-0.454415 -0.769611 -4.415976
-0.426725 -0.980069 -4.146892
-0.430844 -0.963716 -4.186913
-0.45662 -0.736871 -4.437404
-0.472698 -0.722227 -4.593651
-0.434527 -0.93117 -4.222703
-0.439788 -0.910828 -4.273834
-0.46166 -0.879644 -4.357286
-0.45666 -0.824932 -4.310095
-0.447018 -1.249823 -4.219089
-0.445386 -1.213289 -4.203688
-0.450316 -1.184781 -4.250212
-0.437953 -1.114868 -4.133527
-0.4553 -1.11486 -4.297255
-0.457845 -1.069573 -4.321278
-0.45723 -1.375955 -4.315475
-0.455535 -1.32136 -4.299471
-0.470262 -0.813919 -4.438468
-0.467014 -0.768431 -4.407813
-0.43817 -0.977702 -4.135574
-0.446606 -0.970532 -4.215197
-0.472659 -0.741039 -4.461094
-0.448012 -0.932736 -4.228472
-0.45357 -0.912628 -4.280931
-0.473429 -0.877104 -4.343298
-0.470653 -0.826681 -4.317834
-0.462052 -1.256106 -4.238923
-0.458277 -1.213858 -4.204295
-0.462726 -1.183742 -4.24511
-0.451849 -1.118411 -4.145321
-0.470825 -1.12097 -4.319406
-0.473024 -1.074452 -4.339585
-0.472639 -1.382963 -4.336049
-0.468972 -1.322693 -4.302413
-0.484285 -0.814995 -4.442894
-0.482773 -0.772378 -4.429018
-0.453356 -0.983594 -4.159148
-0.457882 -0.967501 -4.200672
-0.488184 -0.744198 -4.47866
-0.46119 -0.933601 -4.231021
-0.468335 -0.916257 -4.296561
-0.488133 -0.880002 -4.356197
-0.483987 -0.827217 -4.319196
-0.473674 -1.253039 -4.227164
-0.473368 -1.220079 -4.224433
-0.479049 -1.19251 -4.275129
-0.464764 -1.119413 -4.14765
-0.486297 -1.126642 -4.339813
-0.489435 -1.081802 -4.367816
-0.490448 -1.396445 -4.376859
-0.48383 -1.327865 -4.317799
-0.498037 -0.815576 -4.444582
-0.497781 -0.774952 -4.442298
-0.465542 -0.982845 -4.154594
-0.472435 -0.97138 -4.216106
-0.504673 -0.748626 -4.503809
-0.476957 -0.939528 -4.25646
-0.481661 -0.916965 -4.298444
-0.503629 -0.884146 -4.375209
-0.498935 -0.83042 -4.334435
-0.486314 -1.252764 -4.224788
-0.489576 -1.228786 -4.253123
-0.492299 -1.19338 -4.276782
-0.479197 -1.123929 -4.162957
-0.500541 -1.129253 -4.348383
-0.502489 -1.08155 -4.365303
-0.504877 -1.399857 -4.38605
-0.501059 -1.339115 -4.352887
-0.514228 -0.820024 -4.467287
-0.515089 -0.780884 -4.474769
-0.479867 -0.986538 -4.168778
-0.488358 -0.977806 -4.242546
-0.525828 -0.759567 -4.568063
-0.48932 -0.938623 -4.250905
-0.496006 -0.919528 -4.308985
-0.518439 -0.886911 -4.387351
-0.513578 -0.83297 -4.346213
-0.501813 -1.259691 -4.246655
-0.5011 -1.225604 -4.240619
-0.509855 -1.204387 -4.31471
-0.493793 -1.128598 -4.178783
-0.512163 -1.125976 -4.334239
-0.515288 -1.080787 -4.360687
-0.517573 -1.347938 -4.380028
-0.532816 -0.827976 -4.50902
-0.532259 -0.786315 -4.504309
-0.494678 -0.991028 -4.186276
-0.501319 -0.978133 -4.242468
-0.502645 -0.939569 -4.253694
-0.512232 -0.925367 -4.334822
-0.532447 -0.88821 -4.392188
-0.528624 -0.836038 -4.36065
-0.517541 -1.266844 -4.269229
-0.517428 -1.234049 -4.268297
-0.521528 -1.201304 -4.302113
-0.50529 -1.126139 -4.16817
-0.527854 -1.131595 -4.354297
-0.531609 -1.087273 -4.385275
-0.531234 -1.349087 -4.382179
-0.547015 -0.828888 -4.512362
-0.551788 -0.794881 -4.551733
-0.506582 -0.989621 -4.178826
-0.516925 -0.983485 -4.264145
-0.518669 -0.945397 -4.278534
-0.525398 -0.925534 -4.334038
-0.549975 -0.895183 -4.425035
-0.544259 -0.839876 -4.379043
-0.532666 -1.272223 -4.285767
-0.531795 -1.237533 -4.278765
-0.536821 -1.206522 -4.319199
-0.522549 -1.136339 -4.204367
-0.544544 -1.139044 -4.381336
-0.543144 -1.083905 -4.370072
-0.550532 -1.364166 -4.429518
-0.565519 -0.83613 -4.550101
-0.573129 -0.805588 -4.611333
-0.521042 -0.993167 -4.192245
-0.527232 -0.97875 -4.242045
-0.532748 -0.947492 -4.286427
-0.540599 -0.929201 -4.349598
-0.564232 -0.896636 -4.430532
-0.560448 -0.844373 -4.40082
-0.550399 -1.283438 -4.321907
-0.54683 -1.242378 -4.293888
-0.550089 -1.207057 -4.319475
-0.536412 -1.138856 -4.212081
-0.557301 -1.138116 -4.376107
-0.56144 -1.093878 -4.408606
-0.5805 -0.83795 -4.558274
-0.535499 -0.996546 -4.204912
-0.543454 -0.984968 -4.267373
-0.549 -0.953269 -4.310925
-0.554494 -0.930507 -4.354063
-0.58047 -0.901103 -4.450876
-0.577751 -0.850308 -4.43003
-0.564969 -1.286942 -4.332023
-0.56236 -1.248108 -4.312013
-0.567472 -1.216398 -4.351212
-0.55224 -1.145341 -4.234421
-0.572505 -1.142122 -4.389802
-0.572077 -1.088822 -4.386527
-0.607333 -0.856406 -4.656858
-0.551953 -1.003406 -4.232214
-0.558888 -0.989512 -4.285393
-0.565352 -0.958956 -4.334959
-0.570935 -0.935937 -4.377765
-0.596888 -0.905651 -4.471559
-0.596645 -0.85827 -4.469735
-0.587656 -1.30837 -4.402399
-0.579791 -1.257715 -4.343473
-0.584948 -1.225524 -4.38211
-0.564656 -1.144626 -4.230092
-0.588663 -1.147818 -4.409942
-0.592948 -1.103041 -4.442042
-0.567193 -1.007811 -4.249101
-0.576661 -0.997907 -4.32003
-0.578047 -0.95833 -4.330408
-0.585434 -0.938017 -4.385752
-0.618499 -0.917712 -4.529264
-0.624836 -0.87897 -4.575671
-0.597364 -1.267213 -4.374493
-0.600058 -1.229412 -4.394222
-0.580831 -1.151407 -4.253423
-0.603286 -1.150348 -4.417861
-0.605135 -1.100846 -4.431396
-0.582153 -1.011543 -4.263098
-0.590732 -0.999676 -4.325928
-0.595395 -0.965289 -4.360075
-0.603861 -0.946169 -4.422066
-0.634032 -0.920434 -4.540809
-0.627634 -1.30266 -4.494986
-0.61653 -1.23587 -4.415465
-0.596324 -1.156579 -4.27075
-0.621963 -1.160339 -4.454374
-0.625952 -1.114115 -4.482944
-0.599441 -1.019081 -4.293079
-0.606619 -1.004383 -4.344486
-0.611115 -0.969369 -4.376682
-0.619821 -0.950195 -4.439032
-0.642314 -1.260337 -4.500963
-0.617074 -1.171525 -4.324098
-0.641286 -1.171097 -4.493762
-0.642082 -1.118666 -4.499339
-0.612175 -1.018728 -4.289768
-0.624071 -1.011436 -4.373133
-0.631122 -0.979943 -4.422539
-0.64112 -0.962071 -4.492598
-0.638448 -1.187025 -4.379399
-0.662241 -1.184342 -4.542609
-0.665013 -1.134645 -4.561621
-0.636849 -1.037861 -4.368432
-0.645042 -1.023792 -4.424632
-0.648965 -0.986799 -4.451544
-0.674904 -0.991812 -4.629466
-0.685622 -1.201308 -4.605635
-0.68382 -1.14309 -4.593534
-0.656439 -1.048108 -4.409604
-0.665185 -1.034368 -4.468351
0.20304 -1.212148 -4.694017
0.199444 -1.135962 -4.610881
0.191824 -1.043563 -4.434718
0.195471 -1.035667 -4.519039
0.176556 -1.177931 -4.388237
0.183506 -1.177641 -4.560963
0.184408 -1.129049 -4.583399
0.176393 -1.031539 -4.384171
0.179015 -1.019564 -4.449335
0.180533 -0.985069 -4.487082
0.185382 -0.977592 -4.607602
0.168398 -1.255282 -4.525198
0.161937 -1.167955 -4.351581
0.168246 -1.167215 -4.52111
0.168543 -1.115538 -4.529079
0.161838 -1.023122 -4.348906
0.163903 -1.009147 -4.404391
0.165881 -0.978473 -4.45756
0.168104 -0.95832 -4.517295
0.156793 -0.921092 -4.585456
0.153173 -1.286476 -4.479591
0.152237 -1.234899 -4.452198
0.148271 -1.163709 -4.336227
0.153898 -1.161838 -4.500767
0.154062 -1.109631 -4.505583
0.147673 -1.015913 -4.318727
0.149788 -1.003582 -4.380574
0.1509 -0.968611 -4.413106
0.153838 -0.954339 -4.499013
0.14147 -0.911475 -4.538029
0.137715 -1.268538 -4.417564
0.138423 -1.231475 -4.440291
0.134097 -1.154281 -4.301522
0.139436 -1.154494 -4.472758
0.140088 -1.10659 -4.493676
0.134233 -1.012786 -4.305861
0.136027 -0.999549 -4.363402
0.137112 -0.965252 -4.398234
0.139197 -0.947052 -4.465103
0.127207 -0.907361 -4.517948
0.126087 -0.852667 -4.478168
0.124664 -1.304809 -4.427606
0.123401 -1.258433 -4.382764
0.124009 -1.221397 -4.404347
0.120547 -1.148778 -4.281399
0.125358 -1.149104 -4.452277
0.126019 -1.102079 -4.475758
0.121011 -1.010816 -4.29787
0.122861 -0.999503 -4.36359
0.123018 -0.958788 -4.369174
0.125083 -0.942172 -4.442488
0.112944 -0.902272 -4.492971
0.112249 -0.850153 -4.465322
0.110159 -1.291328 -4.382211
0.109573 -1.251477 -4.358889
0.110268 -1.216354 -4.386516
0.106548 -1.137193 -4.238562
0.111354 -1.143189 -4.429714
0.112252 -1.099453 -4.465452
0.117299 -0.851192 -4.666234
0.107265 -1.003494 -4.26708
0.108382 -0.987493 -4.311507
0.109139 -0.952667 -4.341626
0.110978 -0.936218 -4.414772
0.098877 -0.897595 -4.47
0.098183 -0.84501 -4.438625
0.096287 -1.2826 -4.352902
0.095691 -1.241929 -4.325944
0.096291 -1.207002 -4.353097
0.093519 -1.134211 -4.22775
0.097813 -1.141092 -4.421902
0.097683 -1.087205 -4.416023
0.100174 -1.384375 -4.528615
0.101749 -0.839022 -4.59984
0.093943 -0.998682 -4.24692
0.095502 -0.988779 -4.317428
0.096172 -0.953936 -4.34772
0.097171 -0.931507 -4.392868
0.084807 -0.8914 -4.439425
0.084125 -0.838315 -4.403734
0.082498 -1.272393 -4.318531
0.082496 -1.239698 -4.318439
0.082892 -1.203069 -4.339183
0.080746 -1.133902 -4.226858
0.083929 -1.133683 -4.393466
0.084471 -1.088567 -4.421828
0.085287 -1.364702 -4.46454
0.087317 -0.833676 -4.57082
0.08074 -0.993829 -4.226545
0.082044 -0.983534 -4.294793
0.082515 -0.947671 -4.319437
0.083853 -0.930734 -4.389498
0.071266 -0.889511 -4.430251
0.070865 -0.838579 -4.405355
0.069525 -1.273355 -4.322028
0.068868 -1.228932 -4.281165
0.069966 -1.205847 -4.349432
0.067716 -1.129207 -4.20958
0.070431 -1.129719 -4.378334
0.070834 -1.083971 -4.403392
0.071387 -1.356445 -4.437762
0.072872 -0.826208 -4.530112
0.073388 -0.791019 -4.562189
0.067786 -0.990809 -4.213926
0.068873 -0.980437 -4.281497
0.069325 -0.945466 -4.309613
0.070293 -0.926499 -4.369755
0.057779 -0.887584 -4.420848
0.057149 -0.832318 -4.372654
0.056048 -1.26341 -4.288459
0.056011 -1.230142 -4.285566
0.056585 -1.200282 -4.329552
0.054784 -1.124365 -4.191715
0.057334 -1.13187 -4.386864
0.057642 -1.085649 -4.410405
0.057446 -1.343434 -4.395388
0.058926 -0.822249 -4.508604
0.059193 -0.785239 -4.529051
0.054913 -0.987861 -4.201574
0.055564 -0.973506 -4.251417
0.0561 -0.941657 -4.292439
0.056856 -0.922318 -4.350225
0.04421 -0.882888 -4.397613
0.043837 -0.829969 -4.360466
0.043008 -1.260303 -4.278064
0.042845 -1.223279 -4.261807
0.04338 -1.196216 -4.315034
0.042168 -1.125071 -4.194492
0.043907 -1.126836 -4.367506
0.044185 -1.081841 -4.395089
0.044499 -1.403536 -4.426394
0.043853 -1.333229 -4.362152
0.045169 -0.81938 -4.493031
0.045316 -0.781495 -4.507614
0.042286 -0.988931 -4.206272
0.042861 -0.97623 -4.263459
0.043085 -0.940158 -4.285759
0.043545 -0.918305 -4.33145
0.030801 -0.878717 -4.37695
0.030456 -0.823739 -4.327844
0.030079 -1.259151 -4.274262
0.029866 -1.218137 -4.244002
0.030271 -1.192453 -4.30157
0.029395 -1.120391 -4.177155
0.030691 -1.125199 -4.361275
0.030773 -1.076344 -4.372867
0.03095 -1.394507 -4.398031
0.030616 -1.329653 -4.350564
0.031609 -0.819106 -4.491642
0.031549 -0.777246 -4.483223
0.029461 -0.984241 -4.186432
0.029989 -0.975768 -4.26155
0.031938 -0.74971 -4.538446
0.030155 -0.939975 -4.285033
0.030513 -0.919246 -4.336001
0.01762 -0.879674 -4.381791
0.017409 -0.82401 -4.329344
0.017131 -1.255026 -4.260329
0.017059 -1.217672 -4.242453
0.01723 -1.187779 -4.284783
0.016748 -1.117106 -4.164973
0.017474 -1.12114 -4.345612
0.017614 -1.078153 -4.380292
0.017547 -1.383625 -4.363784
0.017443 -1.325769 -4.337927
0.018025 -0.817465 -4.48272
0.017918 -0.772493 -4.455879
0.016821 -0.983442 -4.183104
0.017155 -0.976853 -4.266361
0.018071 -0.742348 -4.493951
0.017214 -0.939046 -4.280871
0.0174 -0.917373 -4.327239
